# .PCD v0.7 - Point Cloud Data file format
VERSION 0.7
FIELDS x y z
SIZE 4 4 4
TYPE F F F
COUNT 1 1 1
WIDTH 1815
HEIGHT 1
VIEWPOINT 0 0 0 1 0 0 0
POINTS 1815
DATA ascii
3.1130061 3.99 1.93322
3.138633 3.99 1.9402801
3.1641309 3.99 1.95076
3.190026 3.99 1.95565
3.2131581 3.99 1.9695699
3.235137 3.99 1.99155
3.2625229 3.99 1.9849
3.2899561 3.99 1.98147
3.3186731 3.99 1.9796
3.350409 3.99 1.96865
3.374928 3.99 1.9759799
3.4009519 3.99 1.98212
3.4310231 3.99 1.98226
3.464016 3.99 1.97515
3.4967041 3.99 1.9680699
3.527101 3.99 1.97313
3.5633612 3.99 1.96174
3.5925951 3.99 1.97295
3.6220131 3.99 1.97935
3.6536191 3.99 1.98262
3.689182 3.99 1.9842299
3.7250841 3.99 1.9864
3.7554829 3.99 1.9963
3.7917199 3.99 1.99964
3.8265371 3.99 2.0072989
3.86783 3.99 2.0077031
3.9040699 3.99 2.0149999
3.9493301 3.99 2.0164039
3.9860899 3.99 2.025672
4.0138102 3.99 2.0457768
4.0555 3.99 2.0553389
4.09759 3.99 2.063607
4.1254797 3.99 2.0865722
4.1635299 3.99 2.1036589
4.1849599 3.99 2.129657
4.2172699 3.99 2.1516099
4.25003 3.99 2.173604
4.2811499 3.99 2.196532
4.3198299 3.99 2.2177069
4.3628902 3.99 2.234304
4.3887401 3.99 2.264993
4.4338799 3.99 2.2855821
4.45189 3.99 2.3205628
1.24663 3.99 1.89036
1.4628199 3.99 1.86255
1.5446601 3.99 1.8667901
1.63538 3.99 1.8825799
1.7135401 3.99 1.89213
1.77376 3.99 1.8922499
1.9635999 3.99 2.0121851
1.9553499 3.99 1.95763
2.03899 3.99 1.99227
2.086211 3.99 1.98902
2.0925961 3.99 1.9434201
2.1185279 3.99 1.9223299
2.1638131 3.99 1.9249001
2.20665 3.99 1.92724
2.2460141 3.99 1.9250699
2.283376 3.99 1.92496
2.3276939 3.99 1.9331701
2.3681309 3.99 1.9412099
2.4066281 3.99 1.9471999
2.436815 3.99 1.9414999
2.4696479 3.99 1.9442199
2.5026951 3.99 1.9448199
2.5357261 3.99 1.94952
2.567466 3.99 1.95254
2.601882 3.99 1.9611701
2.6323981 3.99 1.96908
2.661623 3.99 1.96911
2.684855 3.99 1.9518499
2.6850791 3.99 1.86202
2.71205 3.99 1.8530899
2.7427201 3.99 1.85428
2.772732 3.99 1.85254
2.8016551 3.99 1.8550501
2.8298841 3.99 1.85532
2.8582981 3.99 1.85624
2.8879869 3.99 1.86903
2.9157083 3.99 1.86989
2.9436426 3.99 1.87166
2.9714911 3.99 1.8881199
2.9994051 3.99 1.9095
3.0251715 3.99 1.9142901
3.0530162 3.99 1.91479
3.077903 3.99 1.9198101
3.1036921 3.99 1.9352901
3.130686 3.99 1.9428
3.1560769 3.99 1.94978
3.1806011 3.99 1.95068
3.2039819 3.99 1.96567
3.2263851 3.99 1.9905699
3.2526059 3.99 1.99037
3.280817 3.99 1.97658
3.3078029 3.99 1.97627
3.337956 3.99 1.9713399
3.365664 3.99 1.9691899
3.388911 3.99 1.98603
3.4169519 3.99 1.98479
3.4453111 3.99 1.9887
3.4821341 3.99 1.96973
3.512795 3.99 1.97289
3.5465109 3.99 1.96605
3.5800691 3.99 1.9655401
3.6074262 3.99 1.97583
3.638314 3.99 1.97972
3.672245 3.99 1.9801199
3.7037768 3.99 1.98728
3.7384801 3.99 1.99053
3.7738581 3.99 1.9920599
3.8119049 3.99 1.99626
3.842119 3.99 2.0063491
3.8834801 3.99 2.008513
3.91819 3.99 2.017513
3.9595449 3.99 2.02356
3.9989541 3.99 2.0295138
4.0353899 3.99 2.042891
4.0686398 3.99 2.0592151
4.1101899 3.99 2.06844
4.1335001 3.99 2.0953419
4.1704202 3.99 2.1135101
4.1927199 3.99 2.1398849
4.2249699 3.99 2.1605561
4.2676802 3.99 2.177742
4.29322 3.99 2.2045989
4.33008 3.99 2.225291
4.3708 3.99 2.2464919
4.40136 3.99 2.2729249
4.4398098 3.99 2.2953269
1.21893 3.99 1.8308901
1.36903 3.99 1.8685601
1.52705 3.99 1.86913
1.62071 3.99 1.88556
1.69192 3.99 1.88895
1.7675101 3.99 1.8999599
1.94868 3.99 2.0104799
1.95004 3.99 1.9636899
2.028868 3.99 1.99436
2.0754991 3.99 1.98998
2.0882909 3.99 1.95408
2.1075311 3.99 1.9239399
2.1532679 3.99 1.92713
2.1961889 3.99 1.92723
2.2320199 3.99 1.9233299
2.2724209 3.99 1.92449
2.314081 3.99 1.92849
2.3586249 3.99 1.94109
2.396405 3.99 1.94726
2.4302559 3.99 1.94587
2.462007 3.99 1.94697
2.495513 3.99 1.94823
2.5266471 3.99 1.9491899
2.55936 3.99 1.9524
2.5935049 3.99 1.9630799
2.6232049 3.99 1.96389
2.6524899 3.99 1.96609
2.678509 3.99 1.96163
2.688396 3.99 1.9031501
2.7057371 3.99 1.8595999
2.731653 3.99 1.84912
2.7620521 3.99 1.85445
2.7906849 3.99 1.84964
2.821068 3.99 1.8602099
2.850728 3.99 1.8685501
2.878284 3.99 1.86576
2.9071021 3.99 1.87081
2.9351003 3.99 1.8733701
2.9617941 3.99 1.87965
2.9892254 3.99 1.9025501
3.0155063 3.99 1.90661
3.0419087 3.99 1.91831
3.0692346 3.99 1.92573
3.0963862 3.99 1.9351
3.12307 3.99 1.93786
3.1469591 3.99 1.95226
3.1730759 3.99 1.95169
3.1968319 3.99 1.9724301
3.2201869 3.99 1.98588
3.2440031 3.99 1.98851
3.2736809 3.99 1.9774899
3.3001649 3.99 1.98156
3.329458 3.99 1.97174
3.3568921 3.99 1.97352
3.3794639 3.99 1.98592
3.411793 3.99 1.97837
3.437279 3.99 1.98602
3.4736359 3.99 1.96965
3.504925 3.99 1.96761
3.535593 3.99 1.96908
3.570385 3.99 1.9650201
3.6004009 3.99 1.97112
3.6309161 3.99 1.9748399
3.6624341 3.99 1.98177
3.6967051 3.99 1.98392
3.7307351 3.99 1.98553
3.765229 3.99 1.9908201
3.796273 3.99 2.0023019
3.8421271 3.99 1.99361
3.8728571 3.99 2.0057921
3.9117701 3.99 2.012573
3.948956 3.99 2.0216079
3.9842069 3.99 2.031239
4.0255399 3.99 2.0400031
4.0600801 3.99 2.0533271
4.0995598 3.99 2.065542
4.1272202 3.99 2.088722
4.15519 3.99 2.1120889
4.17943 3.99 2.1381731
4.2174001 3.99 2.1539841
4.25138 3.99 2.1756511
4.2869 3.99 2.194881
4.3241301 3.99 2.215646
4.3635001 3.99 2.235913
4.3950701 3.99 2.2635901
4.4412899 3.99 2.2813981
4.4584899 3.99 2.3169861
1.40126 3.99 2.0160861
1.32936 3.99 1.8591701
1.50245 3.99 1.8651
1.6057299 3.99 1.8878399
1.6768199 3.99 1.89095
1.7405699 3.99 1.89003
1.95012 3.99 2.0257821
1.96218 3.99 1.98844
2.014914 3.99 1.99154
2.067158 3.99 1.99086
2.088124 3.99 1.9641999
2.096751 3.99 1.92415
2.1427889 3.99 1.92715
2.185859 3.99 1.92814
2.2267461 3.99 1.92588
2.265739 3.99 1.92601
2.3023171 3.99 1.92566
2.3458021 3.99 1.9331
2.38673 3.99 1.9424499
2.4240088 3.99 1.9467
2.4566741 3.99 1.94577
2.4904242 3.99 1.95013
2.520591 3.99 1.94727
2.5525639 3.99 1.95148
2.5848961 3.99 1.95788
2.620266 3.99 1.9689599
2.6476591 3.99 1.9648199
2.6762331 3.99 1.96627
2.687937 3.99 1.91394
2.7018709 3.99 1.86888
2.729377 3.99 1.85351
2.7581 3.99 1.85272
2.7873311 3.99 1.85254
2.8148911 3.99 1.84955
2.8472431 3.99 1.86599
2.8742361 3.99 1.86595
2.9021327 3.99 1.8707299
2.9305389 3.99 1.86938
2.9583874 3.99 1.87852
2.9877822 3.99 1.9073199
3.0139768 3.99 1.90959
3.04087 3.99 1.91452
3.0664434 3.99 1.9233
3.0931258 3.99 1.93557
3.119113 3.99 1.93388
3.1429579 3.99 1.94741
3.1703429 3.99 1.95226
3.195035 3.99 1.96191
3.2157929 3.99 1.9874899
3.2424929 3.99 1.98507
3.2701821 3.99 1.97605
3.2971811 3.99 1.9772999
3.323915 3.99 1.97365
3.355808 3.99 1.96574
3.3771479 3.99 1.9845201
3.407984 3.99 1.97738
3.4339759 3.99 1.9837899
3.47118 3.99 1.96907
3.5029531 3.99 1.96665
3.533906 3.99 1.9682
3.5650759 3.99 1.96666
3.5966249 3.99 1.9692099
3.6285281 3.99 1.9730799
3.660733 3.99 1.97768
3.6923771 3.99 1.98489
3.723567 3.99 1.9908401
3.759588 3.99 1.99314
3.79844 3.99 1.9928499
3.830056 3.99 2.003073
3.868324 3.99 2.007138
3.905761 3.99 2.0131581
3.9490449 3.99 2.0150869
3.9900022 3.99 2.021806
4.0146499 3.99 2.0444732
4.0595303 3.99 2.0512152
4.0927 3.99 2.0667429
4.12503 3.99 2.0864229
4.1624599 3.99 2.10145
4.1893802 3.99 2.1289101
4.2160702 3.99 2.1529419
4.2509003 3.99 2.17401
4.2822199 3.99 2.1968331
4.31811 3.99 2.21824
4.3643899 3.99 2.234436
4.3881197 3.99 2.2643518
4.43397 3.99 2.2840738
4.4521899 3.99 2.319453
1.40643 4.02 2.0072489
1.34642 4.02 1.85554
1.5092 4.02 1.85543
1.58022 4.02 1.85413
1.67074 4.02 1.86909
1.74754 4.02 1.88029
1.9494101 4.02 2.0100789
1.9741701 4.02 1.98586
1.95654 4.02 1.91651
2.0704641 4.02 1.98002
2.0929861 4.02 1.95199
2.102674 4.02 1.91206
2.152451 4.02 1.9182299
2.197006 4.02 1.91914
2.236443 4.02 1.91897
2.276474 4.02 1.91844
2.3130591 4.02 1.91847
2.3589489 4.02 1.92981
2.3981349 4.02 1.9362099
2.43519 4.02 1.9412299
2.469727 4.02 1.94222
2.5035591 4.02 1.9444101
2.532882 4.02 1.9423101
2.5661371 4.02 1.94525
2.600003 4.02 1.95627
2.6330121 4.02 1.96276
2.6612909 4.02 1.9594899
2.6905041 4.02 1.96347
2.69122 4.02 1.87226
2.715204 4.02 1.84973
2.7437999 4.02 1.84584
2.7758141 4.02 1.85168
2.805088 4.02 1.8506601
2.8324449 4.02 1.84661
2.8626361 4.02 1.8554599
2.8932049 4.02 1.8715401
2.9218905 4.02 1.8697
2.9505558 4.02 1.8745899
2.9791193 4.02 1.89045
3.0068414 4.02 1.90927
3.0328839 4.02 1.914
3.0596428 4.02 1.91839
3.0858645 4.02 1.92768
3.1134801 4.02 1.9370401
3.1399069 4.02 1.94398
3.165168 4.02 1.94789
3.1909671 4.02 1.96014
3.2149949 4.02 1.96637
3.2424419 4.02 1.96913
3.2648511 4.02 1.98163
3.292865 4.02 1.97866
3.3215201 4.02 1.97735
3.3527009 4.02 1.96838
3.3760381 4.02 1.9798499
3.4038169 4.02 1.98702
3.431674 4.02 1.9868801
3.4601381 4.02 1.98959
3.497313 4.02 1.97753
3.529326 4.02 1.9756801
3.56428 4.02 1.97079
3.5903909 4.02 1.98063
3.6222961 4.02 1.9845101
3.6509509 4.02 1.99101
3.6904299 4.02 1.9847801
3.730094 4.02 1.9829099
3.759438 4.02 1.99333
3.7911 4.02 2.004894
3.827409 4.02 2.0090029
3.866962 4.02 2.0135911
3.9040141 4.02 2.0193639
3.9556329 4.02 2.013109
3.9921341 4.02 2.023968
4.02071 4.02 2.0439959
4.0542698 4.02 2.0610909
4.09131 4.02 2.073585
4.1180897 4.02 2.098114
4.1510801 4.02 2.118237
4.1879101 4.02 2.134953
4.2264099 4.02 2.1511869
4.2588401 4.02 2.1751618
4.2952499 4.02 2.19505
4.3219399 4.02 2.223258
4.3594198 4.02 2.2450089
4.3998399 4.02 2.2683771
4.4524002 4.02 2.285233
4.4689598 4.02 2.3223131
1.383 4.02 1.99998
1.3229101 4.02 1.84602
1.4971701 4.02 1.91001
1.50498 4.02 1.8593
1.5849 4.02 1.86426
1.6673499 4.02 1.87308
1.74444 4.02 1.8849
1.9470799 4.02 2.013289
1.97023 4.02 1.98915
1.94383 4.02 1.9110601
2.05913 4.02 1.97378
2.100378 4.02 1.96908
2.0973201 4.02 1.9158499
2.1441879 4.02 1.9180501
2.1891489 4.02 1.91845
2.2314429 4.02 1.9219
2.2695909 4.02 1.9215699
2.306668 4.02 1.9169101
2.3504639 4.02 1.93025
2.390769 4.02 1.9381
2.4287291 4.02 1.9444201
2.4609079 4.02 1.93911
2.493855 4.02 1.9440401
2.5254569 4.02 1.94425
2.5588591 4.02 1.948
2.59144 4.02 1.9553001
2.6245041 4.02 1.96129
2.65486 4.02 1.96661
2.6819501 4.02 1.9647501
2.691957 4.02 1.9089
2.708045 4.02 1.8556601
2.7350991 4.02 1.8439599
2.7646241 4.02 1.85111
2.7960041 4.02 1.85224
2.8248529 4.02 1.85583
2.8528371 4.02 1.8556701
2.8821039 4.02 1.85732
2.9101026 4.02 1.8695699
2.9396296 4.02 1.8716099
2.9665198 4.02 1.88425
2.9958212 4.02 1.9055101
3.0225015 4.02 1.91448
3.0493052 4.02 1.91812
3.0752673 4.02 1.92363
3.1021929 4.02 1.93564
3.1277001 4.02 1.9457099
3.153321 4.02 1.94862
3.1782961 4.02 1.95383
3.2035749 4.02 1.9617701
3.2283981 4.02 1.9697601
3.2504029 4.02 1.98982
3.2735529 4.02 2.0051751
3.3049231 4.02 1.98585
3.330915 4.02 1.98719
3.36324 4.02 1.97602
3.387747 4.02 1.98906
3.4136469 4.02 1.9912701
3.4458151 4.02 1.98455
3.474421 4.02 1.98765
3.5099471 4.02 1.9793
3.5422978 4.02 1.9774001
3.576664 4.02 1.9742299
3.5998549 4.02 1.99111
3.633868 4.02 1.99051
3.6710172 4.02 1.9886
3.7052999 4.02 1.9880301
3.7415481 4.02 1.99154
3.777427 4.02 1.99481
3.817205 4.02 1.9947701
3.8455811 4.02 2.0099511
3.887388 4.02 2.0106649
3.9179921 4.02 2.025212
3.9706459 4.02 2.018707
4.0074 4.02 2.0303411
4.0363903 4.02 2.0513611
4.0729799 4.02 2.062644
4.1058302 4.02 2.0823319
4.1475897 4.02 2.093791
4.1652799 4.02 2.1253781
4.20716 4.02 2.139437
4.2420797 4.02 2.161711
4.2776198 4.02 2.1811609
4.3058801 4.02 2.20806
4.3368702 4.02 2.2325289
4.3748798 4.02 2.254473
4.4205103 4.02 2.2757249
4.4597998 4.02 2.29931
1.3267901 4.02 1.84128
1.50094 4.02 1.90398
1.5101401 4.02 1.85421
1.5815899 4.02 1.85203
1.66219 4.02 1.8636999
1.74774 4.02 1.8823199
1.94559 4.02 2.0064781
1.97664 4.02 1.9894
1.9506199 4.02 1.91215
2.059912 4.02 1.9723901
2.105675 4.02 1.97176
2.099824 4.02 1.91344
2.14222 4.02 1.9106899
2.190778 4.02 1.9181701
2.232774 4.02 1.92003
2.2684522 4.02 1.9148
2.3045931 4.02 1.9117099
2.3518271 4.02 1.92855
2.3911419 4.02 1.9347199
2.4292359 4.02 1.94329
2.460166 4.02 1.93837
2.4949031 4.02 1.94104
2.5256529 4.02 1.94005
2.5578871 4.02 1.94326
2.590373 4.02 1.9508801
2.6250989 4.02 1.9629301
2.653574 4.02 1.9665201
2.681814 4.02 1.96532
2.6937299 4.02 1.91178
2.708348 4.02 1.86332
2.734266 4.02 1.8446701
2.766377 4.02 1.8533101
2.794934 4.02 1.85167
2.8236599 4.02 1.8522199
2.851599 4.02 1.84852
2.8805461 4.02 1.8574799
2.9089499 4.02 1.8706601
2.938426 4.02 1.8721801
2.9646389 4.02 1.88256
2.9927957 4.02 1.8992701
3.0204432 4.02 1.91369
3.0456374 4.02 1.91396
3.0716207 4.02 1.9296401
3.1004281 4.02 1.93573
3.125628 4.02 1.9459599
3.1507051 4.02 1.94849
3.177691 4.02 1.9522099
3.203212 4.02 1.9545699
3.2273819 4.02 1.96903
3.2522149 4.02 1.97533
3.2718511 4.02 2.003931
3.3055379 4.02 1.9797701
3.3301389 4.02 1.98299
3.3594289 4.02 1.98236
3.3850679 4.02 1.9869699
3.414242 4.02 1.98746
3.440644 4.02 1.99484
3.470057 4.02 1.99196
3.5107219 4.02 1.9721401
3.537966 4.02 1.9802001
3.5740781 4.02 1.97622
3.6002641 4.02 1.98728
3.631542 4.02 1.98993
3.663439 4.02 1.9940801
3.707454 4.02 1.98436
3.736392 4.02 1.99396
3.7662671 4.02 2.004195
3.803642 4.02 2.007585
3.8437979 4.02 2.00876
3.8812311 4.02 2.013206
3.9134269 4.02 2.0284681
3.9642091 4.02 2.021486
4.0051999 4.02 2.027698
4.0331001 4.02 2.0481439
4.066 4.02 2.067199
4.1084299 4.02 2.0760801
4.1458597 4.02 2.0916018
4.1665697 4.02 2.12043
4.2012501 4.02 2.1401901
4.2333403 4.02 2.161726
4.2757902 4.02 2.1769249
4.3081999 4.02 2.201767
4.3289099 4.02 2.233237
4.3655801 4.02 2.2551711
4.4055099 4.02 2.2765989
4.4573402 4.02 2.293633
4.47364 4.02 2.3313329
1.4143001 4.02 1.99101
1.33656 4.02 1.82644
1.52792 4.02 1.8492399
1.6306 4.02 1.8730401
1.70171 4.02 1.87638
1.76482 4.02 1.8768101
1.9616899 4.02 2.0054941
1.97641 4.02 1.97193
2.0375462 4.02 1.9846799
2.086127 4.02 1.9817001
2.103723 4.02 1.9500201
2.1172109 4.02 1.9146999
2.162312 4.02 1.91689
2.2036541 4.02 1.9164001
2.2432389 4.02 1.9141999
2.2840581 4.02 1.9164001
2.3222151 4.02 1.9186
2.366976 4.02 1.9320101
2.4036551 4.02 1.9331
2.440511 4.02 1.9386899
2.473527 4.02 1.9375401
2.507381 4.02 1.9420699
2.5367341 4.02 1.9408901
2.569303 4.02 1.9439499
2.6051121 4.02 1.95513
2.6357391 4.02 1.9641801
2.666996 4.02 1.96553
2.695241 4.02 1.9649301
2.695966 4.02 1.87149
2.72155 4.02 1.85667
2.748523 4.02 1.84481
2.7796199 4.02 1.8512
2.8095469 4.02 1.8542199
2.8370321 4.02 1.85403
2.864949 4.02 1.8509101
2.8968439 4.02 1.8671899
2.9246483 4.02 1.86926
2.9511588 4.02 1.87431
2.9802544 4.02 1.88618
3.0071814 4.02 1.90277
3.0336072 4.02 1.90977
3.0606813 4.02 1.9157
3.0853457 4.02 1.93416
3.1114011 4.02 1.9400899
3.136193 4.02 1.94778
3.1640971 4.02 1.94721
3.1887801 4.02 1.9544101
3.2135561 4.02 1.9648
3.2386711 4.02 1.9713199
3.2604189 4.02 1.98849
3.2837989 4.02 1.99791
3.314374 4.02 1.9856
3.3419981 4.02 1.98797
3.37169 4.02 1.9787899
3.3963661 4.02 1.98892
3.422365 4.02 1.99814
3.4554551 4.02 1.98966
3.486479 4.02 1.98507
3.520426 4.02 1.98067
3.5546119 4.02 1.9751999
3.5840158 4.02 1.97754
3.608104 4.02 1.99664
3.6435699 4.02 1.9916199
3.6802671 4.02 1.99028
3.7174191 4.02 1.99014
3.7487769 4.02 1.99784
3.785188 4.02 1.99895
3.8189669 4.02 2.008168
3.8541451 4.02 2.016336
3.8911829 4.02 2.0204949
3.9268 4.02 2.031852
3.973861 4.02 2.02932
4.0184298 4.02 2.03355
4.0454397 4.02 2.053504
4.0830603 4.02 2.066258
4.11128 4.02 2.0905261
4.1540899 4.02 2.1008601
4.1752601 4.02 2.1278739
4.2123299 4.02 2.1471691
4.2445002 4.02 2.1684499
4.2829099 4.02 2.1876061
4.3146801 4.02 2.212496
4.3397503 4.02 2.239594
4.3782401 4.02 2.262831
4.4114103 4.02 2.2876239
4.4641199 4.02 2.306056
1.23569 4.02 1.80575
1.37475 4.02 1.83872
1.55351 4.02 1.8539101
1.62901 4.02 1.85849
1.7092299 4.02 1.86927
1.77826 4.02 1.8761899
1.96481 4.02 1.99541
1.97212 4.02 1.95402
2.0500841 4.02 1.98078
2.08933 4.02 1.9718101
2.10691 4.02 1.93977
2.1274629 4.02 1.91284
2.173506 4.02 1.91618
2.2148759 4.02 1.91564
2.256757 4.02 1.91731
2.2947359 4.02 1.91658
2.334069 4.02 1.92124
2.373435 4.02 1.9276299
2.4149909 4.02 1.9371099
2.448915 4.02 1.93571
2.4809761 4.02 1.93805
2.5147319 4.02 1.93978
2.5467191 4.02 1.94337
2.57916 4.02 1.94348
2.6122971 4.02 1.95698
2.6446719 4.02 1.96346
2.6739979 4.02 1.96409
2.6996901 4.02 1.96337
2.700542 4.02 1.86509
2.727073 4.02 1.8535401
2.7561259 4.02 1.84803
2.784987 4.02 1.84865
2.814955 4.02 1.85789
2.8421831 4.02 1.8497801
2.872261 4.02 1.85385
2.9014783 4.02 1.86677
2.9298451 4.02 1.86817
2.9567442 4.02 1.8675799
2.9860823 4.02 1.89059
3.0124385 4.02 1.9140699
3.0404339 4.02 1.91826
3.0667989 4.02 1.9223199
3.0939188 4.02 1.92986
3.1181691 4.02 1.94233
3.1444759 4.02 1.9491401
3.1712711 4.02 1.94836
3.1945071 4.02 1.9600301
3.221015 4.02 1.9671299
3.2475209 4.02 1.96776
3.267108 4.02 1.99437
3.296546 4.02 1.9836301
3.324079 4.02 1.98472
3.3484709 4.02 1.98886
3.3768439 4.02 1.98788
3.4015369 4.02 2.0014601
3.432519 4.02 1.99404
3.461679 4.02 1.9927701
3.5012999 4.02 1.9750201
3.5302129 4.02 1.9767101
3.566123 4.02 1.97209
3.5920579 4.02 1.98159
3.6222811 4.02 1.98948
3.652333 4.02 1.99309
3.6907899 4.02 1.99077
3.7288189 4.02 1.98877
3.7593091 4.02 1.99919
3.7942901 4.02 2.0019999
3.825762 4.02 2.013165
3.8635991 4.02 2.0179579
3.8989019 4.02 2.0275731
3.9395499 4.02 2.030247
3.984642 4.02 2.0323949
4.0250101 4.02 2.039444
4.0534101 4.02 2.062376
4.0906701 4.02 2.073611
4.1139102 4.02 2.1004891
4.1564198 4.02 2.1116431
4.1772699 4.02 2.140733
4.2186298 4.02 2.1531279
4.25138 4.02 2.1756511
4.28863 4.02 2.196239
4.3249798 4.02 2.216114
4.3573399 4.02 2.241796
4.3899398 4.02 2.267266
4.4416599 4.02 2.2826891
4.4674301 4.02 2.3142629
1.37444 4.0500002 1.8391601
1.54528 4.0500002 1.8473901
1.63052 4.0500002 1.85785
1.7161801 4.0500002 1.87536
1.78421 4.0500002 1.8804301
1.96876 4.0500002 1.99924
1.97024 4.0500002 1.9509599
2.052201 4.0500002 1.9791501
2.108223 4.0500002 1.99148
2.103626 4.0500002 1.9346999
2.126744 4.0500002 1.90829
2.1796589 4.0500002 1.9199699
2.2204618 4.0500002 1.91778
2.25808 4.0500002 1.91671
2.2964859 4.0500002 1.9160401
2.3382559 4.0500002 1.92013
2.3805819 4.0500002 1.92983
2.4209681 4.0500002 1.93839
2.452436 4.0500002 1.9375501
2.484926 4.0500002 1.93585
2.5196719 4.0500002 1.9421999
2.5519199 4.0500002 1.94279
2.5823181 4.0500002 1.94304
2.6178589 4.0500002 1.95892
2.646975 4.0500002 1.96188
2.6759019 4.0500002 1.96323
2.700748 4.0500002 1.9477199
2.7024939 4.0500002 1.85734
2.729284 4.0500002 1.8460799
2.7620521 4.0500002 1.85445
2.790328 4.0500002 1.8530101
2.819788 4.0500002 1.8520601
2.8489161 4.0500002 1.8524001
2.878567 4.0500002 1.85366
2.906528 4.0500002 1.86384
2.9346547 4.0500002 1.86563
2.9643502 4.0500002 1.88307
2.9915607 4.0500002 1.89478
3.019496 4.0500002 1.9169301
3.0445738 4.0500002 1.9181701
3.0718377 4.0500002 1.9264001
3.1004119 4.0500002 1.93899
3.1264911 4.0500002 1.9460601
3.150815 4.0500002 1.95584
3.178025 4.0500002 1.95024
3.2019711 4.0500002 1.9609499
3.229697 4.0500002 1.96391
3.2525549 4.0500002 1.97516
3.2782369 4.0500002 1.98598
3.3033519 4.0500002 1.99008
3.3296831 4.0500002 1.99468
3.352896 4.0500002 2.006037
3.3762889 4.0500002 2.0173321
3.4095559 4.0500002 2.0020189
3.4386511 4.0500002 2.0016129
3.472244 4.0500002 1.99657
3.506371 4.0500002 1.98645
3.538358 4.0500002 1.98549
3.565999 4.0500002 1.99577
3.5993049 4.0500002 1.99078
3.6326621 4.0500002 1.99182
3.6638231 4.0500002 2.0006299
3.7077022 4.0500002 1.98636
3.7426691 4.0500002 1.99175
3.777822 4.0500002 1.99543
3.8056481 4.0500002 2.0095339
3.840205 4.0500002 2.0194991
3.881948 4.0500002 2.0188839
3.9151869 4.0500002 2.0297821
3.9594841 4.0500002 2.0315781
4.0001497 4.0500002 2.0404711
4.03617 4.0500002 2.0526011
4.0684099 4.0500002 2.0691981
4.1110601 4.0500002 2.0800309
4.1399798 4.0500002 2.1023159
4.1676302 4.0500002 2.1280909
4.2094102 4.0500002 2.141309
4.2382298 4.0500002 2.1662779
4.2806702 4.0500002 2.1831431
4.3120999 4.0500002 2.2072239
4.3370099 4.0500002 2.236804
4.3624401 4.0500002 2.264581
4.4295001 4.0500002 2.2740879
4.4703503 4.0500002 2.2981892
4.4777699 4.0500002 2.338671
1.4225301 4.0500002 1.95899
1.34911 4.0500002 1.85341
1.5009301 4.0500002 1.90272
1.5027601 4.0500002 1.8465799
1.59088 4.0500002 1.85764
1.66432 4.0500002 1.86236
1.73641 4.0500002 1.86724
1.94576 4.0500002 2.0055599
1.9751999 4.0500002 1.98411
1.9914401 4.0500002 1.94989
2.0637841 4.0500002 1.96987
2.1110301 4.0500002 1.97341
2.1020589 4.0500002 1.9119201
2.1490469 4.0500002 1.91328
2.1932869 4.0500002 1.91598
2.236896 4.0500002 1.91773
2.27211 4.0500002 1.9138399
2.312979 4.0500002 1.91704
2.3574071 4.0500002 1.92724
2.395988 4.0500002 1.93513
2.431967 4.0500002 1.9372801
2.466311 4.0500002 1.9397399
2.4987359 4.0500002 1.93867
2.5318861 4.0500002 1.94083
2.564508 4.0500002 1.94538
2.5993609 4.0500002 1.9554499
2.6307809 4.0500002 1.96275
2.6592641 4.0500002 1.96384
2.687114 4.0500002 1.9644899
2.697578 4.0500002 1.9037
2.7140729 4.0500002 1.85852
2.741009 4.0500002 1.8451899
2.7708621 4.0500002 1.84475
2.80357 4.0500002 1.85498
2.8307841 4.0500002 1.8549399
2.860563 4.0500002 1.8514301
2.8886261 4.0500002 1.85641
2.9179609 4.0500002 1.86245
2.9460807 4.0500002 1.87104
2.9740927 4.0500002 1.88255
3.0014913 4.0500002 1.90625
3.0293434 4.0500002 1.9134001
3.0548482 4.0500002 1.9254
3.0812995 4.0500002 1.9373599
3.1103039 4.0500002 1.94777
3.134727 4.0500002 1.95011
3.160167 4.0500002 1.9536899
3.187696 4.0500002 1.9587801
3.2131481 4.0500002 1.95961
3.2386169 4.0500002 1.969
3.264189 4.0500002 1.975
3.2881529 4.0500002 1.98148
3.314589 4.0500002 1.9888099
3.337018 4.0500002 2.0000138
3.3632979 4.0500002 2.0060649
3.3943591 4.0500002 1.9956501
3.421725 4.0500002 2.0019422
3.451242 4.0500002 1.99901
3.480541 4.0500002 1.99886
3.5233099 4.0500002 1.97709
3.549216 4.0500002 1.98649
3.5744951 4.0500002 1.99484
3.6101611 4.0500002 1.99263
3.643996 4.0500002 1.9933699
3.6731501 4.0500002 2.0002511
3.7188671 4.0500002 1.9880999
3.7524431 4.0500002 1.99465
3.7885971 4.0500002 1.99686
3.8127089 4.0500002 2.016293
3.854681 4.0500002 2.0168021
3.892658 4.0500002 2.0204849
3.9339681 4.0500002 2.0238318
3.9784651 4.0500002 2.0268569
4.0102401 4.0500002 2.042361
4.0423899 4.0500002 2.058332
4.0809898 4.0500002 2.0711269
4.1226802 4.0500002 2.0827351
4.1543198 4.0500002 2.1032009
4.1761899 4.0500002 2.1316519
4.2157402 4.0500002 2.147244
4.2583699 4.0500002 2.1626561
4.2842302 4.0500002 2.1892231
4.31533 4.0500002 2.2140589
4.3420501 4.0500002 2.2426391
4.3798699 4.0500002 2.2653461
4.4468699 4.0500002 2.2746711
4.47193 4.0500002 2.3067751
1.40071 4.0500002 1.99519
1.33951 4.0500002 1.8427
1.52228 4.0500002 1.85647
1.5848 4.0500002 1.84887
1.6749001 4.0500002 1.86575
1.74564 4.0500002 1.8711801
1.9525601 4.0500002 2.0081911
1.97724 4.0500002 1.9817001
2.0017509 4.0500002 1.9583499
2.072859 4.0500002 1.9781801
2.106014 4.0500002 1.9641899
2.100467 4.0500002 1.90513
2.149652 4.0500002 1.91344
2.197603 4.0500002 1.91994
2.2379041 4.0500002 1.91916
2.2722671 4.0500002 1.91344
2.3145621 4.0500002 1.9169201
2.3571501 4.0500002 1.92681
2.3976431 4.0500002 1.9353399
2.432492 4.0500002 1.93757
2.4675331 4.0500002 1.9385699
2.5020461 4.0500002 1.94568
2.5303559 4.0500002 1.9420601
2.5644131 4.0500002 1.94515
2.598686 4.0500002 1.9562399
2.6297109 4.0500002 1.96154
2.66031 4.0500002 1.96797
2.6874621 4.0500002 1.9635999
2.6957469 4.0500002 1.9005699
2.7130239 4.0500002 1.85697
2.7404621 4.0500002 1.84275
2.7700219 4.0500002 1.84875
2.799448 4.0500002 1.85163
2.8289461 4.0500002 1.85116
2.8573141 4.0500002 1.8483101
2.8865891 4.0500002 1.8644
2.9154606 4.0500002 1.86239
2.9440978 4.0500002 1.86838
2.972892 4.0500002 1.88333
2.9988024 4.0500002 1.9022501
3.0269728 4.0500002 1.91333
3.0534105 4.0500002 1.9188199
3.0796666 4.0500002 1.9279599
3.104934 4.0500002 1.94345
3.131259 4.0500002 1.9499201
3.1561341 4.0500002 1.9533299
3.1832299 4.0500002 1.95418
3.2090969 4.0500002 1.9562399
3.233988 4.0500002 1.96461
3.2587161 4.0500002 1.9730899
3.284086 4.0500002 1.9767001
3.3068581 4.0500002 1.9914
3.3316751 4.0500002 1.99876
3.3570571 4.0500002 2.0038061
3.383285 4.0500002 2.0047541
3.4156761 4.0500002 1.9972399
3.444032 4.0500002 1.99606
3.4728761 4.0500002 2.0001879
3.5125041 4.0500002 1.98114
3.5404119 4.0500002 1.9863
3.569185 4.0500002 1.99269
3.6047859 4.0500002 1.9891
3.638078 4.0500002 1.98932
3.667552 4.0500002 1.9962
3.7073519 4.0500002 1.99038
3.7429221 4.0500002 1.99256
3.7757659 4.0500002 1.99921
3.8066812 4.0500002 2.0110211
3.8407509 4.0500002 2.018321
3.8843541 4.0500002 2.0156679
3.9159009 4.0500002 2.0311439
3.964591 4.0500002 2.0285449
3.9997079 4.0500002 2.0403719
4.0360999 4.0500002 2.05215
4.0686502 4.0500002 2.0679579
4.1110802 4.0500002 2.0784841
4.1381197 4.0500002 2.1007619
4.1653099 4.0500002 2.128334
4.1978798 4.0500002 2.1475279
4.2410097 4.0500002 2.161453
4.2788801 4.0500002 2.180351
4.3092899 4.0500002 2.2050121
4.3312001 4.0500002 2.237227
4.36761 4.0500002 2.258898
4.42665 4.0500002 2.2701449
4.4678202 4.0500002 2.293489
4.4761901 4.0500002 2.3345411
1.4947901 4.0500002 1.91329
1.5587901 4.0500002 1.84847
1.64166 4.0500002 1.8589499
1.7217901 4.0500002 1.86975
1.7947199 4.0500002 1.88158
1.97562 4.0500002 1.99937
1.9598299 4.0500002 1.9328101
2.0591819 4.0500002 1.9822299
2.1107559 4.0500002 1.98991
2.109225 4.0500002 1.93783
2.1316781 4.0500002 1.91203
2.1763189 4.0500002 1.91435
2.221344 4.0500002 1.91776
2.2582479 4.0500002 1.9156801
2.2974849 4.0500002 1.91628
2.3380589 4.0500002 1.9211301
2.3818791 4.0500002 1.9334201
2.417021 4.0500002 1.93599
2.4516821 4.0500002 1.93822
2.4844921 4.0500002 1.93717
2.518208 4.0500002 1.9420401
2.548645 4.0500002 1.94309
2.5808349 4.0500002 1.9468499
2.6169829 4.0500002 1.9600401
2.6465311 4.0500002 1.9615101
2.6768551 4.0500002 1.9652901
2.700264 4.0500002 1.95254
2.7022729 4.0500002 1.86412
2.7291999 4.0500002 1.84995
2.7584281 4.0500002 1.84806
2.7864709 4.0500002 1.84965
2.816895 4.0500002 1.85404
2.8448479 4.0500002 1.85295
2.8739779 4.0500002 1.8579301
2.9030702 4.0500002 1.8598599
2.9320357 4.0500002 1.86854
2.9593139 4.0500002 1.87874
2.9869928 4.0500002 1.8908299
3.0139256 4.0500002 1.91359
3.0414619 4.0500002 1.9145401
3.0661652 4.0500002 1.92303
3.0951576 4.0500002 1.93901
3.1202221 4.0500002 1.9448299
3.145313 4.0500002 1.95152
3.1723421 4.0500002 1.95258
3.1979489 4.0500002 1.95737
3.2213609 4.0500002 1.9641401
3.247462 4.0500002 1.9680001
3.2720909 4.0500002 1.98121
3.296371 4.0500002 1.99139
3.3216751 4.0500002 1.9913
3.345896 4.0500002 2.002521
3.379668 4.0500002 1.98199
3.403419 4.0500002 1.9944
3.430423 4.0500002 2.002666
3.462007 4.0500002 1.99567
3.4861341 4.0500002 2.0074019
3.529274 4.0500002 1.97988
3.559319 4.0500002 1.98575
3.588613 4.0500002 1.9894199
3.618382 4.0500002 1.99765
3.6541171 4.0500002 1.99455
3.6991119 4.0500002 1.97981
3.7328491 4.0500002 1.98551
3.759614 4.0500002 2.0016229
3.7966609 4.0500002 2.0029321
3.8271589 4.0500002 2.013684
3.8706379 4.0500002 2.010498
3.902658 4.0500002 2.0245781
3.9409561 4.0500002 2.0309141
3.990689 4.0500002 2.029634
4.02249 4.0500002 2.0444269
4.05406 4.0500002 2.063858
4.0963202 4.0500002 2.071382
4.1287599 4.0500002 2.091032
4.1613998 4.0500002 2.110332
4.1914797 4.0500002 2.1313601
4.2259502 4.0500002 2.1505179
4.2639799 4.0500002 2.169327
4.2948103 4.0500002 2.1943431
4.3197899 4.0500002 2.223552
4.3525 4.0500002 2.24595
4.3842702 4.0500002 2.273144
4.4508901 4.0500002 2.2810531
4.4746699 4.0500002 2.313818
1.42652 4.0500002 1.9720601
1.3005401 4.0500002 1.8326801
1.47886 4.0500002 1.89736
1.55876 4.0500002 1.8465101
1.65913 4.0500002 1.86926
1.7282701 4.0500002 1.8748699
1.80199 4.0500002 1.88588
1.9815301 4.0500002 2.0029709
1.96018 4.0500002 1.9331701
2.0572829 4.0500002 1.97514
2.1019211 4.0500002 1.97537
2.107219 4.0500002 1.93071
2.1349459 4.0500002 1.90943
2.1828909 4.0500002 1.91627
2.225749 4.0500002 1.91829
2.2652979 4.0500002 1.9190501
2.3000121 4.0500002 1.91435
2.345397 4.0500002 1.9271899
2.3842909 4.0500002 1.9328901
2.422246 4.0500002 1.9379799
2.455827 4.0500002 1.94059
2.4882231 4.0500002 1.93898
2.5185139 4.0500002 1.93888
2.5514359 4.0500002 1.9424499
2.58219 4.0500002 1.94524
2.617739 4.0500002 1.9568299
2.64891 4.0500002 1.96387
2.6782811 4.0500002 1.96589
2.6985021 4.0500002 1.9442099
2.7034979 4.0500002 1.85993
2.729398 4.0500002 1.8465699
2.7621021 4.0500002 1.8547
2.7905059 4.0500002 1.84865
2.819401 4.0500002 1.8495899
2.8470709 4.0500002 1.8529
2.8766651 4.0500002 1.8536201
2.9052336 4.0500002 1.87072
2.9332404 4.0500002 1.86797
2.9617941 4.0500002 1.87965
2.9888103 4.0500002 1.8910601
3.0157032 4.0500002 1.91361
3.0431981 4.0500002 1.91561
3.0685689 4.0500002 1.92694
3.0977843 4.0500002 1.939
3.1219189 4.0500002 1.9452701
3.1476121 4.0500002 1.95588
3.1726689 4.0500002 1.9523801
3.1995111 4.0500002 1.95691
3.2246079 4.0500002 1.96279
3.24945 4.0500002 1.97208
3.272296 4.0500002 1.98489
3.2971959 4.0500002 1.99163
3.3252671 4.0500002 1.98956
3.3469009 4.0500002 2.003135
3.3806701 4.0500002 1.98691
3.407068 4.0500002 1.99641
3.4353111 4.0500002 1.9966099
3.4642601 4.0500002 1.99726
3.489574 4.0500002 2.0051908
3.5310819 4.0500002 1.98251
3.5583141 4.0500002 1.99148
3.585006 4.0500002 2.000634
3.62397 4.0500002 1.99229
3.653029 4.0500002 1.9980201
3.700083 4.0500002 1.98078
3.7309871 4.0500002 1.99157
3.7604609 4.0500002 2.0016389
3.796777 4.0500002 2.003345
3.82845 4.0500002 2.017055
3.87236 4.0500002 2.0123501
3.9076319 4.0500002 2.021347
3.9391401 4.0500002 2.0364718
3.9871831 4.0500002 2.035702
4.0266399 4.0500002 2.042645
4.0588002 4.0500002 2.0601621
4.0942097 4.0500002 2.076242
4.1255598 4.0500002 2.094625
4.1624203 4.0500002 2.1120679
4.1886501 4.0500002 2.1363969
4.2276402 4.0500002 2.15429
4.2642899 4.0500002 2.172081
4.29741 4.0500002 2.195673
4.3284101 4.0500002 2.2194591
4.3530598 4.0500002 2.2490189
4.39255 4.0500002 2.2717021
4.4589901 4.0500002 2.2805071
4.4846001 4.0500002 2.3126431
1.43696 4.0799999 1.93701
1.33366 4.0799999 1.80936
1.5158299 4.0799999 1.8822299
1.53567 4.0799999 1.83978
1.5900699 4.0799999 1.82672
1.6811501 4.0799999 1.84403
1.7572299 4.0799999 1.85621
1.83033 4.0799999 1.86799
1.98943 4.0799999 1.96995
2.03105 4.0799999 1.95751
2.081774 4.0799999 1.96213
2.1326799 4.0799999 1.9703701
2.128854 4.0799999 1.91397
2.156225 4.0799999 1.89414
2.2049119 4.0799999 1.90125
2.250845 4.0799999 1.90742
2.286988 4.0799999 1.9040201
2.3246861 4.0799999 1.9046999
2.3657579 4.0799999 1.9104
2.4103401 4.0799999 1.9279699
2.4443171 4.0799999 1.9268299
2.479835 4.0799999 1.93276
2.512172 4.0799999 1.93188
2.544714 4.0799999 1.93308
2.576292 4.0799999 1.93628
2.609674 4.0799999 1.94728
2.643214 4.0799999 1.95736
2.6703839 4.0799999 1.9565699
2.698312 4.0799999 1.95649
2.7182701 4.0799999 1.92635
2.726088 4.0799999 1.8494
2.7537329 4.0799999 1.8398499
2.78197 4.0799999 1.83777
2.8131621 4.0799999 1.8488101
2.8421681 4.0799999 1.84498
2.8713751 4.0799999 1.8459001
2.9004493 4.0799999 1.85131
2.9294119 4.0799999 1.86119
2.957736 4.0799999 1.86929
2.9860382 4.0799999 1.88709
3.0120125 4.0799999 1.8988199
3.0389678 4.0799999 1.9179499
3.0646665 4.0799999 1.92344
3.0940187 4.0799999 1.93539
3.118495 4.0799999 1.94463
3.1446171 4.0799999 1.9544499
3.1696241 4.0799999 1.95847
3.1960039 4.0799999 1.95675
3.221329 4.0799999 1.96567
3.247802 4.0799999 1.9678299
3.2686849 4.0799999 1.9906501
3.2948561 4.0799999 1.99147
3.3204889 4.0799999 1.99879
3.343168 4.0799999 2.0095129
3.367557 4.0799999 2.0193701
3.3871901 4.0799999 2.0363791
3.4218349 4.0799999 2.021832
3.4526629 4.0799999 2.0166879
3.4818089 4.0799999 2.0141921
3.495657 4.0799999 2.049751
3.552438 4.0799999 1.99823
3.5811419 4.0799999 2.004746
3.6084239 4.0799999 2.0155981
3.6475689 4.0799999 2.0063951
3.67875 4.0799999 2.010102
3.7274141 4.0799999 1.99361
3.7580371 4.0799999 2.0048211
3.793457 4.0799999 2.0080519
3.8150911 4.0799999 2.0312979
3.854454 4.0799999 2.031558
3.8983381 4.0799999 2.0297771
3.937825 4.0799999 2.035192
3.9740641 4.0799999 2.0469589
4.0185599 4.0799999 2.051214
4.0507603 4.0799999 2.0672979
4.0880399 4.0799999 2.0809441
4.1243901 4.0799999 2.0955651
4.1568098 4.0799999 2.11585
4.1833501 4.0799999 2.1427121
4.2231898 4.0799999 2.1588359
4.2497401 4.0799999 2.1850109
4.2919002 4.0799999 2.2010331
4.3285999 4.0799999 2.222265
4.35606 4.0799999 2.2497749
4.3800201 4.0799999 2.2806511
4.4527302 4.0799999 2.2870381
4.48527 4.0799999 2.3152819
1.4196999 4.0799999 1.9632901
1.3851501 4.0799999 1.82472
1.4818799 4.0799999 1.8364201
1.54477 4.0799999 1.8287901
1.6231899 4.0799999 1.8350899
1.71759 4.0799999 1.85791
1.78186 4.0799999 1.85908
1.9715301 4.0799999 1.98711
1.97486 4.0799999 1.9384301
2.0554121 4.0799999 1.96803
2.124543 4.0799999 1.9934601
2.1345601 4.0799999 1.95479
2.1335981 4.0799999 1.90221
2.1801469 4.0799999 1.90458
2.2255061 4.0799999 1.9123199
2.262388 4.0799999 1.90773
2.305887 4.0799999 1.91177
2.3401289 4.0799999 1.9078701
2.3847051 4.0799999 1.9214101
2.4229121 4.0799999 1.92739
2.4570751 4.0799999 1.93013
2.490397 4.0799999 1.92934
2.523917 4.0799999 1.9361701
2.5565381 4.0799999 1.93678
2.5887749 4.0799999 1.93997
2.622756 4.0799999 1.95288
2.6549489 4.0799999 1.965
2.6815989 4.0799999 1.95754
2.7095101 4.0799999 1.9569499
2.710278 4.0799999 1.85922
2.7361009 4.0799999 1.84399
2.764415 4.0799999 1.8452901
2.794493 4.0799999 1.8400601
2.8236809 4.0799999 1.84817
2.8524461 4.0799999 1.8476601
2.882632 4.0799999 1.85324
2.9123378 4.0799999 1.86638
2.9387982 4.0799999 1.86189
2.968683 4.0799999 1.87444
2.9951589 4.0799999 1.89051
3.0231202 4.0799999 1.91325
3.0487554 4.0799999 1.9105899
3.0752499 4.0799999 1.92388
3.1013031 4.0799999 1.93882
3.127353 4.0799999 1.9461701
3.152386 4.0799999 1.95303
3.1795211 4.0799999 1.9535401
3.202961 4.0799999 1.9619
3.226207 4.0799999 1.9756801
3.2548931 4.0799999 1.9693
3.277796 4.0799999 1.98975
3.3039501 4.0799999 1.9860801
3.326957 4.0799999 2.0011511
3.348279 4.0799999 2.018193
3.3711929 4.0799999 2.0306401
3.3967209 4.0799999 2.034044
3.4304709 4.0799999 2.020957
3.4611599 4.0799999 2.015949
3.4796951 4.0799999 2.0365651
3.5315981 4.0799999 1.99493
3.5614262 4.0799999 1.9974999
3.5912631 4.0799999 2.004323
3.6230721 4.0799999 2.004689
3.6562781 4.0799999 2.0055289
3.694504 4.0799999 2.0006239
3.7381639 4.0799999 1.99154
3.7641821 4.0799999 2.008585
3.7938881 4.0799999 2.01963
3.833961 4.0799999 2.0213981
3.8648701 4.0799999 2.0331199
3.90588 4.0799999 2.0354419
3.95175 4.0799999 2.033076
3.991986 4.0799999 2.0410039
4.0235701 4.0799999 2.055886
4.0549002 4.0799999 2.0753901
4.09833 4.0799999 2.0834839
4.1301799 4.0799999 2.102016
4.1624999 4.0799999 2.1225049
4.1793299 4.0799999 2.1529551
4.2260399 4.0799999 2.16522
4.26333 4.0799999 2.1825199
4.3017702 4.0799999 2.2027609
4.3261399 4.0799999 2.2314539
4.35078 4.0799999 2.2598939
4.3885603 4.0799999 2.282449
4.46983 4.0799999 2.2855949
4.47995 4.0799999 2.3240831
1.40569 4.0799999 1.9220899
1.34126 4.0799999 1.82024
1.51359 4.0799999 1.88688
1.5236801 4.0799999 1.8368199
1.5941999 4.0799999 1.83663
1.6775 4.0799999 1.8478299
1.7603199 4.0799999 1.8665301
1.8253499 4.0799999 1.87244
1.98955 4.0799999 1.9779099
2.0220649 4.0799999 1.95701
2.0770369 4.0799999 1.96534
2.1256809 4.0799999 1.9700601
2.1212559 4.0799999 1.91302
2.154753 4.0799999 1.9009399
2.2001259 4.0799999 1.90473
2.2420211 4.0799999 1.90865
2.2797141 4.0799999 1.90789
2.3213329 4.0799999 1.9105999
2.358809 4.0799999 1.91418
2.401556 4.0799999 1.9279799
2.4373069 4.0799999 1.92908
2.47225 4.0799999 1.9320301
2.503823 4.0799999 1.93215
2.536072 4.0799999 1.93463
2.568094 4.0799999 1.9385
2.5999389 4.0799999 1.94319
2.635123 4.0799999 1.95698
2.664767 4.0799999 1.9615201
2.691772 4.0799999 1.9584
2.7120609 4.0799999 1.9300699
2.7198 4.0799999 1.8522099
2.7460921 4.0799999 1.84124
2.7751319 4.0799999 1.84315
2.8043399 4.0799999 1.8424201
2.83619 4.0799999 1.85036
2.8631949 4.0799999 1.84684
2.8923299 4.0799999 1.85229
2.921046 4.0799999 1.86199
2.9502597 4.0799999 1.8678399
2.9777546 4.0799999 1.88272
3.0045221 4.0799999 1.89451
3.0323808 4.0799999 1.91098
3.0580466 4.0799999 1.91505
3.0835626 4.0799999 1.93452
3.1115589 4.0799999 1.94136
3.1370859 4.0799999 1.9476401
3.16224 4.0799999 1.9535
3.188273 4.0799999 1.95558
3.2128141 4.0799999 1.9598
3.237323 4.0799999 1.96819
3.2612071 4.0799999 1.98198
3.2865791 4.0799999 1.98493
3.312175 4.0799999 1.99172
3.3363471 4.0799999 2.001107
3.3587909 4.0799999 2.015065
3.380424 4.0799999 2.0272419
3.4124269 4.0799999 2.0164731
3.4421949 4.0799999 2.0154979
3.4752281 4.0799999 2.002965
3.490274 4.0799999 2.0371339
3.5407979 4.0799999 1.99615
3.5694361 4.0799999 2.0011671
3.5965691 4.0799999 2.008368
3.6303871 4.0799999 2.0104909
3.665941 4.0799999 2.0074549
3.7059929 4.0799999 2.0010431
3.746191 4.0799999 1.9956
3.776386 4.0799999 2.005713
3.7978039 4.0799999 2.028954
3.845813 4.0799999 2.0183849
3.8744421 4.0799999 2.034673
3.9192171 4.0799999 2.0318761
3.9617651 4.0799999 2.0356081
3.998807 4.0799999 2.0459371
4.0332899 4.0799999 2.0583391
4.0703101 4.0799999 2.0706201
4.1073599 4.0799999 2.0861468
4.14008 4.0799999 2.1032469
4.1722002 4.0799999 2.124182
4.1986399 4.0799999 2.149451
4.2309699 4.0799999 2.171165
4.2736702 4.0799999 2.185652
4.3108101 4.0799999 2.207026
4.3374901 4.0799999 2.234112
4.3611202 4.0799999 2.2652931
4.3996 4.0799999 2.2859039
4.4667802 4.0799999 2.2959561
4.4915099 4.0799999 2.329592
1.37626 4.0799999 1.81486
1.5643901 4.0799999 1.8406999
1.6480401 4.0799999 1.85295
1.71927 4.0799999 1.85753
1.78751 4.0799999 1.86438
1.97852 4.0799999 1.9907
1.97926 4.0799999 1.9435699
2.061259 4.0799999 1.97217
2.125092 4.0799999 1.99298
2.1358929 4.0799999 1.9546601
2.130018 4.0799999 1.89643
2.1761019 4.0799999 1.9016701
2.2237811 4.0799999 1.90864
2.2626681 4.0799999 1.9081401
2.3008721 4.0799999 1.90785
2.336489 4.0799999 1.90657
2.3822291 4.0799999 1.9225401
2.4205189 4.0799999 1.92925
2.4559731 4.0799999 1.93012
2.4879229 4.0799999 1.92941
2.5219541 4.0799999 1.93568
2.5530591 4.0799999 1.93417
2.586448 4.0799999 1.9416801
2.618536 4.0799999 1.95016
2.652303 4.0799999 1.9627199
2.679642 4.0799999 1.96128
2.70613 4.0799999 1.96127
2.7134299 4.0799999 1.8906701
2.7305741 4.0799999 1.8444899
2.761795 4.0799999 1.8453101
2.7902939 4.0799999 1.8403101
2.8194821 4.0799999 1.84806
2.848851 4.0799999 1.85191
2.877439 4.0799999 1.84901
2.9054985 4.0799999 1.85514
2.9338183 4.0799999 1.86192
2.9618039 4.0799999 1.8709
2.9908943 4.0799999 1.88704
3.0180857 4.0799999 1.9129
3.0444219 4.0799999 1.91466
3.0694146 4.0799999 1.92749
3.0974493 4.0799999 1.9394699
3.1236119 4.0799999 1.94824
3.1476121 4.0799999 1.95588
3.173558 4.0799999 1.95937
3.1982899 4.0799999 1.9632901
3.2233851 4.0799999 1.9725
3.2513831 4.0799999 1.96535
3.27249 4.0799999 1.9841599
3.296066 4.0799999 1.9954699
3.323199 4.0799999 1.99599
3.3465121 4.0799999 2.0112081
3.366076 4.0799999 2.02736
3.3918071 4.0799999 2.035548
3.4264159 4.0799999 2.015641
3.4539449 4.0799999 2.0167279
3.479794 4.0799999 2.0257339
3.498374 4.0799999 2.0458121
3.553772 4.0799999 1.99839
3.5802069 4.0799999 2.0088329
3.6127691 4.0799999 2.0091729
3.649754 4.0799999 2.0024481
3.6787369 4.0799999 2.010699
3.7271581 4.0799999 1.99281
3.762208 4.0799999 1.9948
3.7891421 4.0799999 2.010684
3.814147 4.0799999 2.0292001
3.8572969 4.0799999 2.026732
3.8984129 4.0799999 2.029165
3.9335551 4.0799999 2.0390611
3.9760001 4.0799999 2.040364
4.0126901 4.0799999 2.0515161
4.0489798 4.0799999 2.065294
4.07587 4.0799999 2.0866899
4.1178298 4.0799999 2.095804
4.1493998 4.0799999 2.1160421
4.1814399 4.0799999 2.136698
4.2133198 4.0799999 2.15731
4.2505102 4.0799999 2.1752429
4.2824602 4.0799999 2.1986299
4.32477 4.0799999 2.2157531
4.3505802 4.0799999 2.2455759
4.3820601 4.0799999 2.2694879
4.4351602 4.0799999 2.285919
4.474 4.0799999 2.3111939
1.4249101 4.0799999 1.9759001
1.34626 4.0799999 1.81153
1.53921 4.0799999 1.83413
1.62598 4.0799999 1.8477
1.6901801 4.0799999 1.8462501
1.7675699 4.0799999 1.86013
1.95241 4.0799999 1.97948
1.98598 4.0799999 1.9624799
2.0500269 4.0799999 1.97401
2.1036 4.0799999 1.98122
2.1316772 4.0799999 1.96403
2.1196809 4.0799999 1.8976099
2.1649909 4.0799999 1.90066
2.2153339 4.0799999 1.9125301
2.2539191 4.0799999 1.9074399
2.2893529 4.0799999 1.90308
2.329917 4.0799999 1.90853
2.376446 4.0799999 1.9247199
2.4144289 4.0799999 1.9305699
2.449044 4.0799999 1.93311
2.482528 4.0799999 1.93312
2.51566 4.0799999 1.9379799
2.544224 4.0799999 1.9319301
2.5787439 4.0799999 1.93907
2.613414 4.0799999 1.9512299
2.6440639 4.0799999 1.95891
2.674664 4.0799999 1.96126
2.700979 4.0799999 1.9604
2.7124779 4.0799999 1.9030601
2.727051 4.0799999 1.84507
2.7554579 4.0799999 1.8433199
2.7841549 4.0799999 1.8424499
2.814491 4.0799999 1.8450501
2.8426411 4.0799999 1.8484499
2.8707781 4.0799999 1.8376601
2.9017525 4.0799999 1.8554599
2.9296749 4.0799999 1.86543
2.9583986 4.0799999 1.87052
2.9859786 4.0799999 1.88234
3.0137265 4.0799999 1.9058399
3.0401759 4.0799999 1.91725
3.0667665 4.0799999 1.92758
3.0937328 4.0799999 1.93863
3.120481 4.0799999 1.94511
3.1440799 4.0799999 1.9541301
3.1701109 4.0799999 1.9590601
3.1954041 4.0799999 1.95995
3.2217209 4.0799999 1.96933
3.246938 4.0799999 1.9701899
3.2694571 4.0799999 1.9877501
3.2935991 4.0799999 1.99475
3.3192291 4.0799999 1.99708
3.3433809 4.0799999 2.0106449
3.366935 4.0799999 2.0194039
3.3891931 4.0799999 2.0336809
3.422447 4.0799999 2.017468
3.4524541 4.0799999 2.0171421
3.4783101 4.0799999 2.0247259
3.4970441 4.0799999 2.047091
3.551224 4.0799999 1.99784
3.5776081 4.0799999 2.006449
3.6052001 4.0799999 2.013612
3.645128 4.0799999 2.0048089
3.673372 4.0799999 2.0121789
3.726043 4.0799999 1.98739
3.7583959 4.0799999 1.99756
3.790905 4.0799999 2.0056961
3.8117559 4.0799999 2.0288281
3.8517451 4.0799999 2.029839
3.895932 4.0799999 2.0265341
3.9240689 4.0799999 2.043098
3.9742501 4.0799999 2.038944
4.0148501 4.0799999 2.0468841
4.0419703 4.0799999 2.06796
4.07406 4.0799999 2.084182
4.1164598 4.0799999 2.0949001
4.1488299 4.0799999 2.1144829
4.1760302 4.0799999 2.138191
4.2191701 4.0799999 2.151274
4.2444701 4.0799999 2.1797121
4.2869 4.0799999 2.194881
4.31918 4.0799999 2.2171149
4.3497601 4.0799999 2.243613
4.3759003 4.0799999 2.2722681
4.4340701 4.0799999 2.2859731
4.48106 4.0799999 2.3074031
4.5048599 4.0799999 2.3393171
1.40062 4.1100001 1.99392
1.3509101 4.1100001 1.84864
1.5151999 4.1100001 1.8497
1.6251999 4.1100001 1.87924
1.6886899 4.1100001 1.8769399
1.7604899 4.1100001 1.88271
1.9541899 4.1100001 2.0064781
1.96289 4.1100001 1.9674101
2.029496 4.1100001 1.98509
2.1011949 4.1100001 2.006144
2.1107781 4.1100001 1.9680101
2.1096079 4.1100001 1.9144499
2.1592331 4.1100001 1.92023
2.2035251 4.1100001 1.9224
2.242842 4.1100001 1.9218
2.2810521 4.1100001 1.9202
2.3172688 4.1100001 1.9172801
2.363775 4.1100001 1.93391
2.3991289 4.1100001 1.93593
2.4350619 4.1100001 1.9396
2.46856 4.1100001 1.93917
2.503377 4.1100001 1.94477
2.533834 4.1100001 1.94134
2.5687129 4.1100001 1.94743
2.6017671 4.1100001 1.9574699
2.6331279 4.1100001 1.9621899
2.6637671 4.1100001 1.9671
2.689929 4.1100001 1.96051
2.6893511 4.1100001 1.86422
2.7142761 4.1100001 1.84867
2.7454019 4.1100001 1.8500999
2.774055 4.1100001 1.851
2.804461 4.1100001 1.85077
2.833595 4.1100001 1.85452
2.8626659 4.1100001 1.8557099
2.8906391 4.1100001 1.86099
2.9200506 4.1100001 1.8655601
2.9486005 4.1100001 1.8721701
2.9757965 4.1100001 1.8907601
3.0026593 4.1100001 1.9165
3.0306058 4.1100001 1.9106801
3.0564835 4.1100001 1.92223
3.0820904 4.1100001 1.9346601
3.109834 4.1100001 1.94671
3.136225 4.1100001 1.94753
3.162596 4.1100001 1.9568499
3.1865981 4.1100001 1.96163
3.2122929 4.1100001 1.9709201
3.237884 4.1100001 1.97217
3.2622731 4.1100001 1.98587
3.288167 4.1100001 1.9845999
3.3126349 4.1100001 1.99605
3.336627 4.1100001 2.008327
3.35852 4.1100001 2.02162
3.385376 4.1100001 2.021666
3.4153991 4.1100001 2.019896
3.4502449 4.1100001 2.002672
3.4655361 4.1100001 2.036859
3.517844 4.1100001 1.98777
3.548099 4.1100001 1.98987
3.5785799 4.1100001 1.99344
3.603519 4.1100001 2.0084829
3.643889 4.1100001 1.9977601
3.682883 4.1100001 1.99174
3.7239909 4.1100001 1.985
3.75599 4.1100001 1.99105
3.784431 4.1100001 2.0066271
3.8234601 4.1100001 2.0060439
3.8520989 4.1100001 2.0208521
3.897296 4.1100001 2.018626
3.9441581 4.1100001 2.0180171
3.9810309 4.1100001 2.028023
4.0127702 4.1100001 2.044672
4.0545602 4.1100001 2.0520349
4.0911102 4.1100001 2.0660391
4.1235399 4.1100001 2.084583
4.1508899 4.1100001 2.109385
4.1882801 4.1100001 2.125725
4.2175198 4.1100001 2.148473
4.2546802 4.1100001 2.1665909
4.3018398 4.1100001 2.1805871
4.3241301 4.1100001 2.211736
4.3489399 4.1100001 2.242141
4.40873 4.1100001 2.2514601
4.4553199 4.1100001 2.271431
4.4797702 4.1100001 2.3040671
1.2914699 4.1100001 1.8455501
1.5523399 4.1100001 1.85619
1.63546 4.1100001 1.86638
1.72249 4.1100001 1.88334
1.7888299 4.1100001 1.88834
1.96336 4.1100001 1.99619
2.0050831 4.1100001 1.99032
2.051662 4.1100001 1.98136
2.111053 4.1100001 1.99798
2.109302 4.1100001 1.94495
2.1285579 4.1100001 1.91421
2.1745591 4.1100001 1.91694
2.219713 4.1100001 1.92418
2.2550101 4.1100001 1.9173001
2.2953949 4.1100001 1.91824
2.3362629 4.1100001 1.92282
2.3790109 4.1100001 1.93451
2.4164371 4.1100001 1.9397399
2.4502349 4.1100001 1.93897
2.4818449 4.1100001 1.9376301
2.5159111 4.1100001 1.94006
2.5475991 4.1100001 1.94463
2.5816491 4.1100001 1.9505601
2.6160409 4.1100001 1.9635899
2.6441109 4.1100001 1.96551
2.673584 4.1100001 1.96474
2.6951871 4.1100001 1.94568
2.696542 4.1100001 1.85374
2.7247071 4.1100001 1.84639
2.754101 4.1100001 1.8400301
2.7843509 4.1100001 1.84699
2.8138299 4.1100001 1.8489599
2.8428111 4.1100001 1.84969
2.871067 4.1100001 1.85448
2.9014568 4.1100001 1.8665301
2.9301999 4.1100001 1.8689001
2.9568677 4.1100001 1.87883
2.9861479 4.1100001 1.8958399
3.0130367 4.1100001 1.9135799
3.0385299 4.1100001 1.92194
3.0657358 4.1100001 1.93002
3.0943339 4.1100001 1.94496
3.120342 4.1100001 1.9488699
3.1465509 4.1100001 1.94892
3.1723421 4.1100001 1.95258
3.196301 4.1100001 1.95986
3.2226801 4.1100001 1.9621199
3.2446141 4.1100001 1.9884
3.2690251 4.1100001 1.9904799
3.295821 4.1100001 1.99123
3.318702 4.1100001 2.0053091
3.3409851 4.1100001 2.0201349
3.364315 4.1100001 2.0312381
3.3899069 4.1100001 2.0334301
3.416316 4.1100001 2.038239
3.4453521 4.1100001 2.035341
3.470998 4.1100001 2.0442541
3.523994 4.1100001 1.99743
3.555192 4.1100001 1.99518
3.5829859 4.1100001 2.004086
3.616554 4.1100001 2.0012259
3.6508441 4.1100001 2.001965
3.6976771 4.1100001 1.98428
3.7325571 4.1100001 1.98592
3.76373 4.1100001 1.99564
3.7880349 4.1100001 2.0142801
3.831239 4.1100001 2.01156
3.8721321 4.1100001 2.013149
3.9074621 4.1100001 2.0215302
3.946811 4.1100001 2.0275412
3.9793141 4.1100001 2.0433888
4.0191402 4.1100001 2.0496349
4.07446 4.1100001 2.0473051
4.0935802 4.1100001 2.0762661
4.13097 4.1100001 2.09179
4.1673799 4.1100001 2.108274
4.1997399 4.1100001 2.12784
4.2321501 4.1100001 2.150692
4.2659998 4.1100001 2.1719499
4.3086901 4.1100001 2.1901569
4.34759 4.1100001 2.2101631
4.3674603 4.1100001 2.2424941
4.4326601 4.1100001 2.2502251
4.4596 4.1100001 2.2811921
4.49965 4.1100001 2.3076611
1.47284 4.1100001 1.84789
1.55566 4.1100001 1.8524001
1.64503 4.1100001 1.8693299
1.72493 4.1100001 1.88056
1.7849399 4.1100001 1.8792701
1.96858 4.1100001 1.99907
2.0076389 4.1100001 1.98851
2.0762539 4.1100001 2.005605
2.1164441 4.1100001 2.0002241
2.10691 4.1100001 1.93977
2.128994 4.1100001 1.91354
2.1778841 4.1100001 1.9207
2.2172198 4.1100001 1.9195
2.2564621 4.1100001 1.91751
2.2945321 4.1100001 1.9181999
2.337806 4.1100001 1.92598
2.3777621 4.1100001 1.93437
2.4152319 4.1100001 1.9375501
2.4486151 4.1100001 1.9400899
2.4835989 4.1100001 1.9412199
2.5167329 4.1100001 1.94491
2.546629 4.1100001 1.94396
2.5796859 4.1100001 1.9473101
2.6133859 4.1100001 1.96164
2.6434269 4.1100001 1.96627
2.670948 4.1100001 1.96426
2.696959 4.1100001 1.95714
2.6970711 4.1100001 1.85825
2.7226441 4.1100001 1.84612
2.752672 4.1100001 1.8441701
2.7809989 4.1100001 1.84305
2.8112781 4.1100001 1.84912
2.8404491 4.1100001 1.84648
2.8701019 4.1100001 1.85434
2.89958 4.1100001 1.8664399
2.9274399 4.1100001 1.8693299
2.9555063 4.1100001 1.87538
2.9827659 4.1100001 1.89138
3.0106666 4.1100001 1.91355
3.0360773 4.1100001 1.92486
3.0632386 4.1100001 1.93262
3.0873652 4.1100001 1.9416
3.1157949 4.1100001 1.9453399
3.1419301 4.1100001 1.9485401
