# .PCD v0.7 - Point Cloud Data file format
VERSION 0.7
FIELDS x y z
SIZE 4 4 4
TYPE F F F
COUNT 1 1 1
WIDTH 1667
HEIGHT 1
VIEWPOINT 0 0 0 1 0 0 0
POINTS 1667
DATA ascii
0.11187203 1.7600001 -1.659023
0.13878699 1.7600001 -1.644621
0.194465 1.7600001 -1.663905
0.23154499 1.7600001 -1.654941
0.27785602 1.7600001 -1.657444
0.31493798 1.7600001 -1.6469131
0.36362001 1.7600001 -1.646588
0.38834998 1.7600001 -1.6234651
0.42168006 1.7600001 -1.605992
0.42912003 1.7600001 -1.56552
0.50081009 1.7600001 -1.578584
0.52395993 1.7600001 -1.550467
0.55647999 1.7600001 -1.528787
0.59568995 1.7600001 -1.511224
0.65104002 1.7600001 -1.5030121
0.68546993 1.7600001 -1.4794229
0.72646993 1.7600001 -1.457575
0.75883991 1.7600001 -1.4302289
0.74133998 1.7600001 -1.377516
0.81707996 1.7600001 -1.370361
0.83414 1.7600001 -1.334779
0.94300002 1.7600001 -1.3370939
-2.64972 1.7900001 -1.83978
-2.31932 1.7900001 -1.8188399
-2.1944799 1.7900001 -1.78843
-2.11322 1.7900001 -1.7861999
-2.04633 1.7900001 -1.78889
-1.9743199 1.7900001 -1.7858499
-1.9058299 1.7900001 -1.78092
-1.84742 1.7900001 -1.78124
-1.7847199 1.7900001 -1.77806
-1.72935 1.7900001 -1.7760099
-1.6709199 1.7900001 -1.7737399
-1.6229019 1.7900001 -1.7728499
-1.564653 1.7900001 -1.7601399
-1.511202 1.7900001 -1.74911
-1.468684 1.7900001 -1.7469
-1.4290529 1.7900001 -1.7484
-1.390663 1.7900001 -1.7504599
-1.3466489 1.7900001 -1.74178
-1.3101599 1.7900001 -1.7433499
-1.271073 1.7900001 -1.7350999
-1.230624 1.7900001 -1.7264599
-1.204416 1.7900001 -1.7396801
-1.172533 1.7900001 -1.7393
-1.134065 1.7900001 -1.7246701
-1.106807 1.7900001 -1.7327299
-1.077244 1.7900001 -1.73612
-1.043316 1.7900001 -1.7233
-1.012974 1.7900001 -1.7206899
-0.98543501 1.7900001 -1.7243199
-0.96765101 1.7900001 -1.7629399
-0.94740999 1.7900001 -1.78913
-0.92267901 1.7900001 -1.80829
-0.89596802 1.7900001 -1.8174599
-0.86566496 1.7900001 -1.8237799
-0.83680999 1.7900001 -1.82047
-0.80671 1.7900001 -1.8143599
-0.778476 1.7900001 -1.8095999
-0.75033778 1.7900001 -1.80115
-0.71976131 1.7900001 -1.7818899
-0.69192678 1.7900001 -1.7712799
-0.66553611 1.7900001 -1.76124
-0.6389221 1.7900001 -1.7448
-0.61337107 1.7900001 -1.7124599
-0.5893966 1.7900001 -1.70136
-0.56186497 1.7900001 -1.6988299
-0.537112 1.7900001 -1.69013
-0.51913899 1.7900001 -1.63098
-0.49771801 1.7900001 -1.613906
-0.475575 1.7900001 -1.600913
-0.45274499 1.7900001 -1.601757
-0.42567798 1.7900001 -1.612601
-0.40057698 1.7900001 -1.6124979
-0.37730497 1.7900001 -1.606318
-0.35189399 1.7900001 -1.604597
-0.32647297 1.7900001 -1.601952
-0.29884398 1.7900001 -1.611481
-0.269501 1.7900001 -1.613517
-0.235723 1.7900001 -1.627081
-0.20609601 1.7900001 -1.629765
-0.17344801 1.7900001 -1.640609
-0.14837401 1.7900001 -1.628221
-0.10539298 1.7900001 -1.652874
-0.075860009 1.7900001 -1.6479089
-0.048647985 1.7900001 -1.640065
-0.00028399946 1.7900001 -1.659398
0.049853995 1.7900001 -1.68211
0.089114025 1.7900001 -1.6825399
0.11067899 1.7900001 -1.662511
0.14420898 1.7900001 -1.65279
0.19632597 1.7900001 -1.666594
0.23083897 1.7900001 -1.6552479
0.285449 1.7900001 -1.666442
0.32247403 1.7900001 -1.656
0.36033997 1.7900001 -1.643497
0.40168998 1.7900001 -1.634427
0.43136999 1.7900001 -1.612739
0.43982992 1.7900001 -1.573745
0.50289005 1.7900001 -1.57917
0.53089005 1.7900001 -1.5545599
0.55857998 1.7900001 -1.529265
0.60101002 1.7900001 -1.512259
0.65345997 1.7900001 -1.501515
0.68893987 1.7900001 -1.477984
0.73386997 1.7900001 -1.460233
0.74578005 1.7900001 -1.421791
0.82708997 1.7900001 -1.372581
0.88378006 1.7900001 -1.354187
0.96836001 1.7900001 -1.344447
-2.48122 1.7900001 -1.84552
-2.4518299 1.7900001 -1.8896099
-2.2304399 1.7900001 -1.7972399
-2.1482701 1.7900001 -1.79474
-2.06164 1.7900001 -1.78504
-1.99023 1.7900001 -1.78334
-1.92775 1.7900001 -1.7833799
-1.8610699 1.7900001 -1.77947
-1.79351 1.7900001 -1.7698599
-1.74374 1.7900001 -1.77464
-1.68234 1.7900001 -1.7663499
-1.631264 1.7900001 -1.76491
-1.578691 1.7900001 -1.75956
-1.5282021 1.7900001 -1.7513299
-1.485926 1.7900001 -1.75462
-1.4400229 1.7900001 -1.7476701
-1.394509 1.7900001 -1.7403499
-1.365693 1.7900001 -1.7515799
-1.321872 1.7900001 -1.7435899
-1.278734 1.7900001 -1.73103
-1.244789 1.7900001 -1.73277
-1.210073 1.7900001 -1.73067
-1.183169 1.7900001 -1.7406199
-1.14825 1.7900001 -1.73478
-1.11791 1.7900001 -1.7365099
-1.08577 1.7900001 -1.73228
-1.052177 1.7900001 -1.72092
-1.021732 1.7900001 -1.7212199
-0.99347699 1.7900001 -1.72189
-0.97044504 1.7900001 -1.73753
-0.95490998 1.7900001 -1.7867299
-0.927279 1.7900001 -1.7941899
-0.904248 1.7900001 -1.8165699
-0.87719101 1.7900001 -1.8265899
-0.847076 1.7900001 -1.82678
-0.81456602 1.7900001 -1.8088599
-0.787925 1.7900001 -1.80992
-0.75741178 1.7900001 -1.80038
-0.72951567 1.7900001 -1.78241
-0.70142192 1.7900001 -1.76705
-0.67326975 1.7900001 -1.76
-0.6461786 1.7900001 -1.74824
-0.62069178 1.7900001 -1.7265999
-0.59613061 1.7900001 -1.7021099
-0.56864899 1.7900001 -1.69048
-0.544837 1.7900001 -1.68708
-0.52382898 1.7900001 -1.640807
-0.50389999 1.7900001 -1.615014
-0.48278698 1.7900001 -1.601881
-0.45848799 1.7900001 -1.597693
-0.43221599 1.7900001 -1.606277
-0.40816197 1.7900001 -1.609184
-0.38127998 1.7900001 -1.610689
-0.35945699 1.7900001 -1.603186
-0.33198598 1.7900001 -1.603434
-0.30723497 1.7900001 -1.601344
-0.277096 1.7900001 -1.613457
-0.24820001 1.7900001 -1.614603
-0.212972 1.7900001 -1.632228
-0.17664002 1.7900001 -1.646158
-0.15166305 1.7900001 -1.633412
-0.11022197 1.7900001 -1.651893
-0.075236008 1.7900001 -1.658633
-0.054271027 1.7900001 -1.634758
-0.012603028 1.7900001 -1.647504
0.052008942 1.7900001 -1.69162
0.079572991 1.7900001 -1.67781
0.10696997 1.7900001 -1.662244
0.13904102 1.7900001 -1.6509
0.19245799 1.7900001 -1.665978
0.22912498 1.7900001 -1.657151
0.27500799 1.7900001 -1.658787
0.31253996 1.7900001 -1.648262
0.35867009 1.7900001 -1.6456339
0.40119991 1.7900001 -1.636098
0.42464003 1.7900001 -1.610604
0.42843005 1.7900001 -1.565961
0.50169998 1.7900001 -1.580296
0.52472991 1.7900001 -1.554055
0.55592006 1.7900001 -1.53089
0.59377998 1.7900001 -1.510945
0.64596993 1.7900001 -1.499812
0.68031007 1.7900001 -1.476843
0.71929008 1.7900001 -1.454525
0.75777 1.7900001 -1.430656
0.81825 1.7900001 -1.371406
0.86543006 1.7900001 -1.348105
0.95208997 1.7900001 -1.339303
-2.6510999 1.7900001 -1.83696
-2.1954 1.7900001 -1.78591
-2.13311 1.7900001 -1.7952199
-2.0486801 1.7900001 -1.7851899
-1.9765999 1.7900001 -1.7816399
-1.9083 1.7900001 -1.77704
-1.84966 1.7900001 -1.7785
-1.7836599 1.7900001 -1.7691801
-1.73466 1.7900001 -1.7736899
-1.68109 1.7900001 -1.7746199
-1.625222 1.7900001 -1.76886
-1.5745029 1.7900001 -1.76239
-1.515192 1.7900001 -1.7469499
-1.481331 1.7900001 -1.7571199
-1.436353 1.7900001 -1.74936
-1.396441 1.7900001 -1.7508
-1.355569 1.7900001 -1.74678
-1.317718 1.7900001 -1.74202
-1.275753 1.7900001 -1.7338799
-1.239535 1.7900001 -1.7313399
-1.210598 1.7900001 -1.73601
-1.178911 1.7900001 -1.7407099
-1.145519 1.7900001 -1.7349
-1.1132669 1.7900001 -1.73439
-1.08289 1.7900001 -1.7326
-1.049498 1.7900001 -1.72428
-1.019222 1.7900001 -1.71942
-0.99216902 1.7900001 -1.7196701
-0.97087699 1.7900001 -1.7413
-0.95423001 1.7900001 -1.78406
-0.92909402 1.7900001 -1.7978699
-0.90354502 1.7900001 -1.81952
-0.876728 1.7900001 -1.8294599
-0.84735399 1.7900001 -1.8264799
-0.815561 1.7900001 -1.80924
-0.78820997 1.7900001 -1.8096399
-0.75956941 1.7900001 -1.8002099
-0.72998023 1.7900001 -1.78539
-0.70332283 1.7900001 -1.7704999
-0.67624509 1.7900001 -1.7604799
-0.6491046 1.7900001 -1.74905
-0.62366122 1.7900001 -1.7247299
-0.59848201 1.7900001 -1.70904
-0.57254529 1.7900001 -1.6908599
-0.546996 1.7900001 -1.68784
-0.52647197 1.7900001 -1.6467609
-0.50570798 1.7900001 -1.6183749
-0.485681 1.7900001 -1.601948
-0.461963 1.7900001 -1.596429
-0.43800899 1.7900001 -1.601547
-0.41102099 1.7900001 -1.612828
-0.38534698 1.7900001 -1.611145
-0.363709 1.7900001 -1.604853
-0.33850798 1.7900001 -1.6012599
-0.31305099 1.7900001 -1.600644
-0.28251901 1.7900001 -1.6127239
-0.25315699 1.7900001 -1.617347
-0.21770601 1.7900001 -1.6330819
-0.184411 1.7900001 -1.6419489
-0.15958898 1.7900001 -1.6331099
-0.11411403 1.7900001 -1.657546
-0.080181047 1.7900001 -1.659554
-0.059145018 1.7900001 -1.638147
-0.022223039 1.7900001 -1.645213
0.040841952 1.7900001 -1.6875499
0.07559301 1.7900001 -1.68107
0.104728 1.7900001 -1.67001
0.13088299 1.7900001 -1.6524169
0.18430401 1.7900001 -1.666404
0.223058 1.7900001 -1.661297
0.26282898 1.7900001 -1.6562231
0.30646804 1.7900001 -1.6550269
0.34820005 1.7900001 -1.647911
0.38926002 1.7900001 -1.63957
0.41545996 1.7900001 -1.613577
0.42200002 1.7900001 -1.5741841
0.48388001 1.7900001 -1.579134
0.52300996 1.7900001 -1.563906
0.54965001 1.7900001 -1.53846
0.58283991 1.7900001 -1.5160431
0.63266999 1.7900001 -1.504892
0.67948002 1.7900001 -1.488884
0.70783991 1.7900001 -1.4594949
0.74553007 1.7900001 -1.437573
0.72272998 1.7900001 -1.381067
0.80554003 1.7900001 -1.3777519
0.85215002 1.7900001 -1.355177
0.93122 1.7900001 -1.3445309
1.01744 1.7900001 -1.333638
-2.62937 1.7900001 -1.84368
-2.5190699 1.7900001 -1.8401999
-2.46666 1.7900001 -1.86766
-2.2830899 1.7900001 -1.8060699
-2.1887701 1.7900001 -1.7957599
-2.1006701 1.7900001 -1.7852499
-2.04039 1.7900001 -1.7933999
-1.96937 1.7900001 -1.7908399
-1.89533 1.7900001 -1.7787499
-1.8377299 1.7900001 -1.78056
-1.7752099 1.7900001 -1.7752099
-1.7177099 1.7900001 -1.7698499
-1.664158 1.7900001 -1.7710999
-1.614488 1.7900001 -1.76855
-1.559386 1.7900001 -1.75734
-1.508716 1.7900001 -1.752
-1.471679 1.7900001 -1.7571199
-1.425249 1.7900001 -1.7492299
-1.387475 1.7900001 -1.75078
-1.347584 1.7900001 -1.7465099
-1.307199 1.7900001 -1.74104
-1.272655 1.7900001 -1.7399499
-1.230677 1.7900001 -1.7258699
-1.2047319 1.7900001 -1.73813
-1.171765 1.7900001 -1.7399399
-1.135501 1.7900001 -1.7294999
-1.108042 1.7900001 -1.7357399
-1.078249 1.7900001 -1.73439
-1.042636 1.7900001 -1.71956
-1.01375 1.7900001 -1.7230699
-0.98478699 1.7900001 -1.7253
-0.96594101 1.7900001 -1.75201
-0.946495 1.7900001 -1.7893599
-0.92146403 1.7900001 -1.80574
-0.894499 1.7900001 -1.81826
-0.86742598 1.7900001 -1.8303199
-0.837699 1.7900001 -1.8243799
-0.80702198 1.7900001 -1.8143299
-0.77909797 1.7900001 -1.80627
-0.75051492 1.7900001 -1.80364
-0.72238618 1.7900001 -1.7860199
-0.69402361 1.7900001 -1.7709899
-0.66731429 1.7900001 -1.7642499
-0.63996291 1.7900001 -1.73908
-0.61494261 1.7900001 -1.7205601
-0.59022111 1.7900001 -1.7016701
-0.56424803 1.7900001 -1.68953
-0.54061502 1.7900001 -1.68705
-0.52099299 1.7900001 -1.641641
-0.50158697 1.7900001 -1.613081
-0.47872299 1.7900001 -1.601055
-0.456521 1.7900001 -1.5969861
-0.42835698 1.7900001 -1.61071
-0.40546599 1.7900001 -1.608947
-0.37911999 1.7900001 -1.6094999
-0.358217 1.7900001 -1.6001359
-0.33071199 1.7900001 -1.60377
-0.30554599 1.7900001 -1.604174
-0.27677396 1.7900001 -1.610613
-0.24753501 1.7900001 -1.615401
-0.21416502 1.7900001 -1.628366
-0.17753603 1.7900001 -1.642409
-0.153989 1.7900001 -1.630972
-0.11010103 1.7900001 -1.655851
-0.078210041 1.7900001 -1.654295
-0.057423994 1.7900001 -1.637947
-0.015667005 1.7900001 -1.649858
0.046880975 1.7900001 -1.6878899
0.077774003 1.7900001 -1.67883
0.11095203 1.7900001 -1.6718199
0.13228197 1.7900001 -1.650306
0.18604197 1.7900001 -1.66623
0.22349598 1.7900001 -1.66124
0.26707396 1.7900001 -1.65909
0.30764201 1.7900001 -1.652452
0.34431002 1.7900001 -1.642579
0.3946701 1.7900001 -1.6429189
0.41912004 1.7900001 -1.616232
0.41841003 1.7900001 -1.568715
0.48378 1.7900001 -1.578041
0.51909 1.7900001 -1.5599589
0.55229002 1.7900001 -1.540345
0.59344989 1.7900001 -1.52221
0.63268 1.7900001 -1.5044019
0.67989999 1.7900001 -1.489641
0.71434993 1.7900001 -1.463726
0.73917001 1.7900001 -1.434621
0.72233993 1.7900001 -1.381827
0.81174999 1.7900001 -1.3827209
0.85294992 1.7900001 -1.357039
0.91933995 1.7900001 -1.3405449
1.0171801 1.7900001 -1.335662
-2.6522701 1.7900001 -1.8354599
-2.29111 1.7900001 -1.7945999
-2.2245901 1.7900001 -1.8040199
-2.12498 1.7900001 -1.7889699
-2.04052 1.7900001 -1.77859
-1.9773599 1.7900001 -1.78228
-1.9080601 1.7900001 -1.7780501
-1.8485 1.7900001 -1.77863
-1.7866199 1.7900001 -1.7733001
-1.7336199 1.7900001 -1.7726099
-1.6751699 1.7900001 -1.77056
-1.620495 1.7900001 -1.76402
-1.572335 1.7900001 -1.7615799
-1.518559 1.7900001 -1.75002
-1.4740189 1.7900001 -1.7491699
-1.431702 1.7900001 -1.74591
-1.390849 1.7900001 -1.74312
-1.350397 1.7900001 -1.74058
-1.31519 1.7900001 -1.7417899
-1.277485 1.7900001 -1.73693
-1.23666 1.7900001 -1.72806
-1.2083369 1.7900001 -1.7365899
-1.175953 1.7900001 -1.73824
-1.137632 1.7900001 -1.72418
-1.1107659 1.7900001 -1.7300099
-1.082182 1.7900001 -1.7342199
-1.04634 1.7900001 -1.7208999
-1.018285 1.7900001 -1.7194699
-0.990753 1.7900001 -1.7232399
-0.96957403 1.7900001 -1.75023
-0.95222902 1.7900001 -1.78767
-0.92625201 1.7900001 -1.80391
-0.90128499 1.7900001 -1.8163999
-0.87204099 1.7900001 -1.82318
-0.84462202 1.7900001 -1.82336
-0.81382298 1.7900001 -1.81299
-0.78495097 1.7900001 -1.8084599
-0.75648701 1.7900001 -1.80045
-0.72736633 1.7900001 -1.78202
-0.69942778 1.7900001 -1.77086
-0.67238617 1.7900001 -1.76375
-0.64574891 1.7900001 -1.7412299
-0.61924052 1.7900001 -1.72077
-0.5955677 1.7900001 -1.7020699
-0.56804001 1.7900001 -1.6994599
-0.54273999 1.7900001 -1.69034
-0.52483201 1.7900001 -1.632363
-0.50385702 1.7900001 -1.61526
-0.483836 1.7900001 -1.599286
-0.45808399 1.7900001 -1.602986
-0.432134 1.7900001 -1.610899
-0.40703201 1.7900001 -1.612242
-0.38420698 1.7900001 -1.608447
-0.36041597 1.7900001 -1.604558
-0.33393797 1.7900001 -1.60281
-0.30538797 1.7900001 -1.612159
-0.27719197 1.7900001 -1.6132261
-0.24816801 1.7900001 -1.618147
-0.21556799 1.7900001 -1.630139
-0.17808403 1.7900001 -1.6466069
-0.15594201 1.7900001 -1.631735
-0.119736 1.7900001 -1.643208
-0.078716978 1.7900001 -1.659554
-0.055408046 1.7900001 -1.644658
-0.015202029 1.7900001 -1.6534539
0.044103041 1.7900001 -1.68984
0.078115001 1.7900001 -1.68449
0.10907097 1.7900001 -1.6739199
0.13658799 1.7900001 -1.657764
0.19065 1.7900001 -1.67381
0.21987905 1.7900001 -1.657768
0.27028802 1.7900001 -1.6646529
0.30664399 1.7900001 -1.655205
0.34883007 1.7900001 -1.647979
0.3855401 1.7900001 -1.6351119
0.41387996 1.7900001 -1.6127239
0.4270601 1.7900001 -1.577871
0.48499998 1.7900001 -1.580532
0.5288499 1.7900001 -1.567776
0.56039995 1.7900001 -1.546626
0.59252006 1.7900001 -1.5235879
0.63288003 1.7900001 -1.5050269
0.68075997 1.7900001 -1.4896619
0.71282989 1.7900001 -1.464862
0.74531001 1.7900001 -1.437454
0.74928004 1.7900001 -1.395597
0.81918997 1.7900001 -1.386297
0.86088997 1.7900001 -1.360117
0.93812996 1.7900001 -1.350024
1.01039 1.7900001 -1.332451
-2.59758 1.8200001 -1.83251
-2.5031099 1.8200001 -1.8378199
-2.2683499 1.8200001 -1.80484
-2.17453 1.8200001 -1.7960399
-2.09308 1.8200001 -1.7924999
-2.03458 1.8200001 -1.8024
-1.9420199 1.8200001 -1.78002
-1.8870699 1.8200001 -1.7870699
-1.8238299 1.8200001 -1.78242
-1.7689101 1.8200001 -1.7821701
-1.70777 1.8200001 -1.7792299
-1.6529059 1.8200001 -1.7724599
-1.602796 1.8200001 -1.77065
-1.5432169 1.8200001 -1.75437
-1.497963 1.8200001 -1.75207
-1.454399 1.8200001 -1.74963
-1.414718 1.8200001 -1.75167
-1.373419 1.8200001 -1.74866
-1.332648 1.8200001 -1.7434399
-1.291482 1.8200001 -1.73434
-1.259711 1.8200001 -1.74143
-1.222186 1.8200001 -1.73428
-1.191479 1.8200001 -1.73993
-1.1589891 1.8200001 -1.7414399
-1.123787 1.8200001 -1.7294
-1.093616 1.8200001 -1.73349
-1.061142 1.8200001 -1.72935
-1.0289921 1.8200001 -1.72378
-1.000006 1.8200001 -1.7206399
-0.97475702 1.8200001 -1.72954
-0.95964402 1.8200001 -1.7774999
-0.93444002 1.8200001 -1.79304
-0.90735799 1.8200001 -1.8064799
-0.88318098 1.8200001 -1.8255
-0.85377401 1.8200001 -1.8282599
-0.82263201 1.8200001 -1.8196599
-0.79146898 1.8200001 -1.80778
-0.76352978 1.8200001 -1.81067
-0.73446351 1.8200001 -1.7944
-0.70612109 1.8200001 -1.78266
-0.67873687 1.8200001 -1.77472
-0.65197247 1.8200001 -1.7535999
-0.62614638 1.8200001 -1.7273399
-0.60093188 1.8200001 -1.7064499
-0.57447273 1.8200001 -1.68828
-0.54926401 1.8200001 -1.6853499
-0.52800697 1.8200001 -1.643701
-0.50624502 1.8200001 -1.6245561
-0.486085 1.8200001 -1.606614
-0.46034101 1.8200001 -1.6096439
-0.43789798 1.8200001 -1.6074439
-0.408914 1.8200001 -1.618472
-0.38550898 1.8200001 -1.614327
-0.36021301 1.8200001 -1.6129149
-0.33934599 1.8200001 -1.598905
-0.31369299 1.8200001 -1.598212
-0.28060499 1.8200001 -1.615181
-0.25236097 1.8200001 -1.614264
-0.21441902 1.8200001 -1.637337
-0.18641399 1.8200001 -1.635963
-0.15034901 1.8200001 -1.646036
-0.11979799 1.8200001 -1.6486959
-0.082101032 1.8200001 -1.656333
-0.059935018 1.8200001 -1.639236
-0.032043979 1.8200001 -1.630428
0.030091004 1.8200001 -1.67158
0.072372034 1.8200001 -1.6778499
0.10561295 1.8200001 -1.67059
0.11961199 1.8200001 -1.639671
0.17362095 1.8200001 -1.654487
0.218197 1.8200001 -1.658609
0.25403103 1.8200001 -1.6490591
0.30603305 1.8200001 -1.6540511
0.34837005 1.8200001 -1.647009
0.39094993 1.8200001 -1.6384619
0.40973005 1.8200001 -1.609115
0.42731008 1.8200001 -1.577572
0.48580012 1.8200001 -1.5791169
0.51921993 1.8200001 -1.558537
0.54580003 1.8200001 -1.532225
0.59577996 1.8200001 -1.522778
0.62286001 1.8200001 -1.495628
0.6748299 1.8200001 -1.483053
0.72106987 1.8200001 -1.4655659
0.74084991 1.8200001 -1.432048
0.73180002 1.8200001 -1.380885
0.81249994 1.8200001 -1.3771141
0.83054 1.8200001 -1.34103
0.92249995 1.8200001 -1.336257
1.0291301 1.8200001 -1.333959
-2.2771699 1.8200001 -1.79274
-2.18349 1.8200001 -1.78355
-2.1122 1.8200001 -1.78793
-2.0457201 1.8200001 -1.7896399
-1.9740999 1.8200001 -1.78688
-1.90413 1.8200001 -1.7824301
-1.84723 1.8200001 -1.78289
-1.7786399 1.8200001 -1.77141
-1.7247299 1.8200001 -1.77179
-1.6705199 1.8200001 -1.7751199
-1.620719 1.8200001 -1.7727599
-1.564236 1.8200001 -1.7614499
-1.510601 1.8200001 -1.7489499
-1.470927 1.8200001 -1.75177
-1.430614 1.8200001 -1.7524999
-1.3906929 1.8200001 -1.7543499
-1.346356 1.8200001 -1.7419599
-1.3100491 1.8200001 -1.74516
-1.2686059 1.8200001 -1.73276
-1.229408 1.8200001 -1.7262599
-1.2049489 1.8200001 -1.7422099
-1.170889 1.8200001 -1.7403499
-1.1287121 1.8200001 -1.71637
-1.107366 1.8200001 -1.73575
-1.076797 1.8200001 -1.7349499
-1.041741 1.8200001 -1.72068
-1.014215 1.8200001 -1.7244899
-0.98428798 1.8200001 -1.72258
-0.96505499 1.8200001 -1.75225
-0.94741398 1.8200001 -1.7878399
-0.922122 1.8200001 -1.8043199
-0.89707899 1.8200001 -1.8231
-0.86755401 1.8200001 -1.82726
-0.83932 1.8200001 -1.8266701
-0.80858296 1.8200001 -1.81414
-0.77931303 1.8200001 -1.8085099
-0.7490797 1.8200001 -1.7964799
-0.72175431 1.8200001 -1.78555
-0.69282782 1.8200001 -1.77126
-0.66643137 1.8200001 -1.7604899
-0.63919371 1.8200001 -1.7455601
-0.61539829 1.8200001 -1.7173299
-0.58931082 1.8200001 -1.6988399
-0.562895 1.8200001 -1.6863699
-0.53617799 1.8200001 -1.6864799
-0.518022 1.8200001 -1.636372
-0.49826699 1.8200001 -1.6152769
-0.47633699 1.8200001 -1.603626
-0.450903 1.8200001 -1.603894
-0.42325798 1.8200001 -1.616621
-0.399362 1.8200001 -1.611889
-0.37448698 1.8200001 -1.611722
-0.348591 1.8200001 -1.6143
-0.32517597 1.8200001 -1.605471
-0.29465798 1.8200001 -1.62058
-0.26894999 1.8200001 -1.614099
-0.23485599 1.8200001 -1.63108
-0.201434 1.8200001 -1.638063
-0.173723 1.8200001 -1.636817
-0.14641599 1.8200001 -1.6305699
-0.10095303 1.8200001 -1.6581069
-0.06997399 1.8200001 -1.65457
-0.048961028 1.8200001 -1.6355129
0.005320983 1.8200001 -1.667679
0.052725986 1.8200001 -1.6849799
0.083166972 1.8200001 -1.6757499
0.10281099 1.8200001 -1.648658
0.13846804 1.8200001 -1.644236
0.19696994 1.8200001 -1.664045
0.23586603 1.8200001 -1.65912
0.28274503 1.8200001 -1.660373
0.31946805 1.8200001 -1.649801
0.36461005 1.8200001 -1.646992
0.39400002 1.8200001 -1.625407
0.43061003 1.8200001 -1.6120889
0.43450007 1.8200001 -1.5684069
0.50225002 1.8200001 -1.577139
0.52585 1.8200001 -1.550854
0.55758995 1.8200001 -1.52807
0.60218996 1.8200001 -1.5145431
0.65913004 1.8200001 -1.5065919
0.68742007 1.8200001 -1.4785839
0.72602004 1.8200001 -1.455315
0.75240999 1.8200001 -1.425813
0.72184998 1.8200001 -1.3639489
0.81992 1.8200001 -1.370208
0.86620992 1.8200001 -1.346949
0.96807998 1.8200001 -1.34381
1.05251 1.8200001 -1.331748
-2.62766 1.8200001 -1.8440999
-2.51811 1.8200001 -1.84172
-2.2816601 1.8200001 -1.8063699
-2.17119 1.8200001 -1.7846299
-2.10024 1.8200001 -1.78743
-2.0325601 1.8200001 -1.79072
-1.9608399 1.8200001 -1.7865601
-1.89803 1.8200001 -1.7873
-1.8302399 1.8200001 -1.7764599
-1.77239 1.8200001 -1.7766099
-1.7154399 1.8200001 -1.77166
-1.662522 1.8200001 -1.77291
-1.612252 1.8200001 -1.7708
-1.552947 1.8200001 -1.7555
-1.508442 1.8200001 -1.7534699
-1.463092 1.8200001 -1.7503999
-1.424812 1.8200001 -1.7492399
-1.386885 1.8200001 -1.75117
-1.343617 1.8200001 -1.7428
-1.303315 1.8200001 -1.7378199
-1.2670339 1.8200001 -1.7333599
-1.229066 1.8200001 -1.72701
-1.202039 1.8200001 -1.7400299
-1.167102 1.8200001 -1.7330099
-1.126399 1.8200001 -1.71574
-1.103718 1.8200001 -1.7334599
-1.074296 1.8200001 -1.7353699
-1.040022 1.8200001 -1.72128
-1.012888 1.8200001 -1.7233499
-0.98385501 1.8200001 -1.72427
-0.965581 1.8200001 -1.75651
-0.94594401 1.8200001 -1.78975
-0.92132902 1.8200001 -1.80808
-0.89433002 1.8200001 -1.81906
-0.86702597 1.8200001 -1.82988
-0.83710498 1.8200001 -1.8247199
-0.80629498 1.8200001 -1.81089
-0.77814198 1.8200001 -1.8093799
-0.7491408 1.8200001 -1.7929599
-0.72145307 1.8200001 -1.77906
-0.69319642 1.8200001 -1.77451
-0.66671824 1.8200001 -1.7639999
-0.639081 1.8200001 -1.7393
-0.61406982 1.8200001 -1.72076
-0.58932441 1.8200001 -1.6950799
-0.56297302 1.8200001 -1.68563
-0.538993 1.8200001 -1.68432
-0.51903796 1.8200001 -1.6367849
-0.50016099 1.8200001 -1.615111
-0.477606 1.8200001 -1.601335
-0.45427001 1.8200001 -1.602111
-0.42508298 1.8200001 -1.6191599
-0.40174797 1.8200001 -1.61621
-0.37709099 1.8200001 -1.6133209
-0.35225999 1.8200001 -1.614486
-0.33029598 1.8200001 -1.600958
-0.30473799 1.8200001 -1.598756
-0.27366298 1.8200001 -1.610121
-0.23966901 1.8200001 -1.625299
-0.207525 1.8200001 -1.6335059
-0.17847799 1.8200001 -1.635317
-0.15075599 1.8200001 -1.633208
-0.10964803 1.8200001 -1.650414
-0.075481996 1.8200001 -1.657614
-0.056281969 1.8200001 -1.6321859
-0.02038501 1.8200001 -1.637071
0.038012996 1.8200001 -1.6718199
0.078598991 1.8200001 -1.6782199
0.10488899 1.8200001 -1.6606979
0.13293298 1.8200001 -1.647833
0.18701799 1.8200001 -1.66407
0.22982396 1.8200001 -1.662259
0.268078 1.8200001 -1.6574479
0.314024 1.8200001 -1.6545609
0.35618004 1.8200001 -1.648608
0.38873002 1.8200001 -1.6327339
0.41702005 1.8200001 -1.610256
0.42879006 1.8200001 -1.575775
0.49251005 1.8200001 -1.5802931
0.52143008 1.8200001 -1.557662
0.54755002 1.8200001 -1.531476
0.60171992 1.8200001 -1.5242571
0.62360996 1.8200001 -1.492135
0.67528003 1.8200001 -1.481823
0.70955008 1.8200001 -1.454988
0.75485998 1.8200001 -1.436608
0.72418994 1.8200001 -1.376547
0.81404001 1.8200001 -1.3773561
0.83178002 1.8200001 -1.340107
0.92429 1.8200001 -1.336498
1.0194001 1.8200001 -1.330689
-2.4969201 1.8200001 -1.8479398
-2.25403 1.8200001 -1.8051
-2.14487 1.8200001 -1.78266
-2.06569 1.8200001 -1.77956
-2.0164101 1.8200001 -1.79415
-1.9437799 1.8200001 -1.7901499
-1.87403 1.8200001 -1.78056
-1.80906 1.8200001 -1.7753999
-1.75913 1.8200001 -1.77952
-1.6989 1.8200001 -1.7775899
-1.643886 1.8200001 -1.77078
-1.591323 1.8200001 -1.7649499
-1.532168 1.8200001 -1.7478499
-1.491838 1.8200001 -1.75077
-1.4491119 1.8200001 -1.74729
-1.403896 1.8200001 -1.7397
-1.371266 1.8200001 -1.7485698
-1.3279799 1.8200001 -1.7404499
-1.2924199 1.8200001 -1.73929
-1.256718 1.8200001 -1.7373699
-1.2195309 1.8200001 -1.732
-1.192572 1.8200001 -1.7444
-1.155481 1.8200001 -1.73452
-1.115267 1.8200001 -1.7126499
-1.095969 1.8200001 -1.7368499
-1.061168 1.8200001 -1.7258699
-1.0299801 1.8200001 -1.72291
-1.0017049 1.8200001 -1.72404
-0.97661799 1.8200001 -1.73057
-0.96225101 1.8200001 -1.7775899
-0.93654197 1.8200001 -1.791
-0.91071397 1.8200001 -1.8055199
-0.88366598 1.8200001 -1.8210899
-0.85725099 1.8200001 -1.8297299
-0.82638299 1.8200001 -1.82143
-0.79547399 1.8200001 -1.8070999
-0.76757312 1.8200001 -1.8103299
-0.7393536 1.8200001 -1.79386
-0.71129292 1.8200001 -1.77473
-0.68295741 1.8200001 -1.77492
-0.65754718 1.8200001 -1.75718
-0.62991083 1.8200001 -1.7347499
-0.60578191 1.8200001 -1.7152799
-0.58034319 1.8200001 -1.6915699
-0.55538303 1.8200001 -1.6883199
-0.53059 1.8200001 -1.67589
-0.51099199 1.8200001 -1.634734
-0.49180099 1.8200001 -1.612807
-0.468959 1.8200001 -1.602065
-0.44608501 1.8200001 -1.600436
-0.41687599 1.8200001 -1.619851
-0.39392698 1.8200001 -1.609529
-0.36927897 1.8200001 -1.610335
-0.34369099 1.8200001 -1.6118239
-0.32146499 1.8200001 -1.6014249
-0.28697199 1.8200001 -1.621014
-0.26204598 1.8200001 -1.6174001
-0.225697 1.8200001 -1.633767
-0.194883 1.8200001 -1.638765
-0.16690902 1.8200001 -1.6383619
-0.134849 1.8200001 -1.6410511
-0.096940979 1.8200001 -1.652025
-0.06580399 1.8200001 -1.650548
-0.044210002 1.8200001 -1.6336321
0.021474021 1.8200001 -1.67846
0.06146504 1.8200001 -1.6854899
0.089216009 1.8200001 -1.6718199
0.10501702 1.8200001 -1.640522
0.14473297 1.8200001 -1.6409609
0.20306899 1.8200001 -1.6633559
0.24651898 1.8200001 -1.66257
0.28625098 1.8200001 -1.656989
0.33176002 1.8200001 -1.6544269
0.36949 1.8200001 -1.642527
0.39816007 1.8200001 -1.620755
0.42137 1.8200001 -1.595956
0.44824001 1.8200001 -1.572505
0.50733989 1.8200001 -1.5734019
0.53016001 1.8200001 -1.544973
0.56278998 1.8200001 -1.523223
0.60506994 1.8200001 -1.507465
0.66386002 1.8200001 -1.5004539
0.70365006 1.8200001 -1.479645
0.73096997 1.8200001 -1.450068
0.74214 1.8200001 -1.4109991
0.77449995 1.8200001 -1.3838199
0.82247001 1.8200001 -1.362977
0.87675995 1.8200001 -1.3440549
0.97166997 1.8200001 -1.339011
-2.4800501 1.8200001 -1.8468599
-2.2283001 1.8200001 -1.79763
-2.1482701 1.8200001 -1.79474
-2.0622499 1.8200001 -1.7842799
-1.99806 1.8200001 -1.78685
-1.92792 1.8200001 -1.7816899
-1.86856 1.8200001 -1.7828
-1.8052599 1.8200001 -1.7789398
-1.7518699 1.8200001 -1.77754
-1.6899699 1.8200001 -1.7746099
-1.634863 1.8200001 -1.7684
-1.5877349 1.8200001 -1.76796
-1.528342 1.8200001 -1.7509
-1.491456 1.8200001 -1.75702
-1.442081 1.8200001 -1.74558
-1.396119 1.8200001 -1.7389499
-1.367685 1.8200001 -1.75208
-1.32379 1.8200001 -1.7421299
-1.2841649 1.8200001 -1.7330999
-1.250827 1.8200001 -1.7349
-1.2144979 1.8200001 -1.7329
-1.187288 1.8200001 -1.7394699
-1.152698 1.8200001 -1.7368799
-1.115374 1.8200001 -1.7248299
-1.088757 1.8200001 -1.73138
-1.05527 1.8200001 -1.72405
-1.026405 1.8200001 -1.72466
-0.999394 1.8200001 -1.72372
-0.97321397 1.8200001 -1.7318
-0.96069199 1.8200001 -1.7852399
-0.934241 1.8200001 -1.7977099
-0.90766799 1.8200001 -1.80641
-0.88070601 1.8200001 -1.82265
-0.85350001 1.8200001 -1.82653
-0.824166 1.8200001 -1.8192099
-0.79400498 1.8200001 -1.80801
-0.765728 1.8200001 -1.81074
-0.73688668 1.8200001 -1.7937599
-0.70886058 1.8200001 -1.7828199
-0.6811167 1.8200001 -1.7716899
-0.65464979 1.8200001 -1.75239
-0.62731773 1.8200001 -1.7341399
-0.60216612 1.8200001 -1.70929
-0.57563108 1.8200001 -1.6909
-0.55064899 1.8200001 -1.6855099
-0.52947497 1.8200001 -1.650481
-0.507976 1.8200001 -1.6301761
-0.48933998 1.8200001 -1.6062289
-0.46577799 1.8200001 -1.6044439
-0.44159499 1.8200001 -1.600116
-0.41448298 1.8200001 -1.617398
-0.38949999 1.8200001 -1.613173
-0.36597297 1.8200001 -1.610059
-0.34290498 1.8200001 -1.6017541
-0.31788698 1.8200001 -1.5963351
-0.285795 1.8200001 -1.613524
-0.258174 1.8200001 -1.615723
-0.22107001 1.8200001 -1.635481
-0.19397299 1.8200001 -1.633301
-0.16286699 1.8200001 -1.637099
-0.13051705 1.8200001 -1.639509
-0.088155016 1.8200001 -1.659627
-0.066026017 1.8200001 -1.643043
-0.037681028 1.8200001 -1.634447
0.021666007 1.8200001 -1.6728599
0.065189973 1.8200001 -1.68248
0.098166004 1.8200001 -1.6750599
0.11403199 1.8200001 -1.645793
0.15258504 1.8200001 -1.643828
0.207352 1.8200001 -1.6605771
0.24368401 1.8200001 -1.650878
0.29447201 1.8200001 -1.657362
0.33515999 1.8200001 -1.651318
0.37401006 1.8200001 -1.638777
0.39829001 1.8200001 -1.6130689
0.41486999 1.8200001 -1.582335
0.45650002 1.8200001 -1.5725989
0.51111001 1.8200001 -1.567632
0.53353006 1.8200001 -1.53991
0.57106 1.8200001 -1.5204669
0.62124997 1.8200001 -1.51105
0.66639 1.8200001 -1.4944659
0.70177001 1.8200001 -1.469993
0.73962003 1.8200001 -1.447349
0.71787995 1.8200001 -1.39104
0.79921991 1.8200001 -1.38907
0.83301002 1.8200001 -1.360414
0.89685994 1.8200001 -1.344189
0.98384994 1.8200001 -1.335575
-2.5983 1.85 -1.8610899
-2.5030401 1.85 -1.8660799
-2.2551601 1.85 -1.8223399
-2.16278 1.85 -1.8115699
-2.08375 1.85 -1.80782
-2.02352 1.85 -1.8152099
-1.9428899 1.85 -1.80361
-1.8759201 1.85 -1.7994699
-1.8135699 1.85 -1.7944
-1.7559799 1.85 -1.79272
-1.69608 1.85 -1.79039
-1.640329 1.85 -1.78255
-1.5904469 1.85 -1.7816399
-1.531956 1.85 -1.7646099
-1.4871581 1.85 -1.7624398
-1.441982 1.85 -1.75855
-1.399928 1.85 -1.7559899
-1.364516 1.85 -1.75886
-1.319924 1.85 -1.75032
-1.279622 1.85 -1.74204
-1.2489879 1.85 -1.74755
-1.207643 1.85 -1.73666
-1.180843 1.85 -1.7447699
-1.146631 1.85 -1.74289
-1.10578 1.85 -1.72126
-1.0813169 1.85 -1.73803
-1.049711 1.85 -1.73031
-1.0180531 1.85 -1.7274399
-0.99090797 1.85 -1.7268499
-0.96442699 1.85 -1.73505
-0.95033902 1.85 -1.7840199
-0.92293102 1.85 -1.79492
-0.89618897 1.85 -1.8087499
-0.87197101 1.85 -1.8264999
-0.84372801 1.85 -1.83461
-0.81197298 1.85 -1.8185099
-0.78201699 1.85 -1.8105099
-0.75329828 1.85 -1.8076999
-0.72588992 1.85 -1.8013699
-0.69610059 1.85 -1.7826899
-0.66909289 1.85 -1.7787499
-0.6414606 1.85 -1.7598799
-0.61631942 1.85 -1.7273899
-0.59185231 1.85 -1.70631
-0.56452602 1.85 -1.6895599
-0.54092598 1.85 -1.67802
-0.52072799 1.85 -1.645141
-0.49658501 1.85 -1.631995
-0.478019 1.85 -1.604483
-0.45282999 1.85 -1.607167
-0.42833701 1.85 -1.607607
-0.40276697 1.85 -1.617537
-0.37672499 1.85 -1.612684
-0.35324499 1.85 -1.6090139
-0.32875201 1.85 -1.6059829
-0.30340701 1.85 -1.60065
-0.27239698 1.85 -1.615284
-0.24444799 1.85 -1.616757
-0.20814599 1.85 -1.630198
-0.17788 1.85 -1.63389
-0.14842401 1.85 -1.6356421
-0.107374 1.85 -1.653145
-0.071585998 1.85 -1.65555
-0.054573998 1.85 -1.6313909
-0.021426005 1.85 -1.628728
0.041995004 1.85 -1.66991
0.082268015 1.85 -1.6745499
0.11910798 1.85 -1.6720999
0.12836297 1.85 -1.633129
0.18515696 1.85 -1.6521209
0.22686 1.85 -1.6514341
0.26644203 1.85 -1.644489
0.31857803 1.85 -1.6499879
0.35651001 1.85 -1.638817
0.38965008 1.85 -1.622021
0.41332993 1.85 -1.5972949
0.43842003 1.85 -1.5731
0.49306008 1.85 -1.5710419
0.52583998 1.85 -1.548334
0.54827005 1.85 -1.51958
0.59737998 1.85 -1.5068719
0.63617998 1.85 -1.487186
0.68896991 1.85 -1.474995
0.71616 1.85 -1.445297
0.75269991 1.85 -1.420998
0.73772997 1.85 -1.3685139
0.81914002 1.85 -1.3653851
0.98005003 1.85 -1.34558
-2.48788 1.85 -1.8618499
-2.2444 1.85 -1.81715
-2.1426401 1.85 -1.80127
-2.07251 1.85 -1.8038299
-2.0060899 1.85 -1.80484
-1.9231899 1.85 -1.78851
-1.8627099 1.85 -1.7901599
-1.8043499 1.85 -1.7902099
-1.74524 1.85 -1.78466
-1.69038 1.85 -1.78477
-1.6330949 1.85 -1.77791
-1.578828 1.85 -1.7682199
-1.523476 1.85 -1.75506
-1.486709 1.85 -1.7618399
-1.438491 1.85 -1.7555
-1.390139 1.85 -1.7426898
-1.360806 1.85 -1.755
-1.315611 1.85 -1.7418299
-1.275135 1.85 -1.7328
-1.2429709 1.85 -1.7391499
-1.210948 1.85 -1.7403198
-1.1790479 1.85 -1.74175
-1.147903 1.85 -1.7426
-1.1039621 1.85 -1.71687
-1.0809309 1.85 -1.73443
-1.048712 1.85 -1.72934
-1.01884 1.85 -1.72692
-0.99105299 1.85 -1.72733
-0.96655899 1.85 -1.7427599
-0.94960999 1.85 -1.7849699
-0.92332399 1.85 -1.7938
-0.89831299 1.85 -1.81292
-0.87401098 1.85 -1.8307099
-0.84431797 1.85 -1.8385699
-0.813061 1.85 -1.82215
-0.78285098 1.85 -1.80943
-0.75428993 1.85 -1.79184
-0.72587758 1.85 -1.8011199
-0.69842118 1.85 -1.79039
-0.66970271 1.85 -1.76025
-0.64383239 1.85 -1.7601899
-0.61760092 1.85 -1.7307099
-0.5935607 1.85 -1.70242
-0.56758201 1.85 -1.68434
-0.54198599 1.85 -1.6806799
-0.52001196 1.85 -1.651607
-0.49978101 1.85 -1.635358
-0.48007101 1.85 -1.6074539
-0.45598701 1.85 -1.608662
-0.428745 1.85 -1.617776
-0.40192896 1.85 -1.622496
-0.37852499 1.85 -1.616904
-0.35416299 1.85 -1.615651
-0.32977599 1.85 -1.611142
-0.30419999 1.85 -1.606869
-0.275617 1.85 -1.6133809
-0.239623 1.85 -1.6324019
-0.20783 1.85 -1.641686
-0.17726998 1.85 -1.642274
-0.14366697 1.85 -1.6469949
-0.113681 1.85 -1.649547
-0.077073976 1.85 -1.6574039
-0.057959005 1.85 -1.637102
-0.024596019 1.85 -1.634776
0.034645036 1.85 -1.6705199
0.075974002 1.85 -1.67985
0.106977 1.85 -1.6695319
0.12547304 1.85 -1.641987
0.17154099 1.85 -1.649354
0.21576203 1.85 -1.651045
0.25591502 1.85 -1.646244
0.30737999 1.85 -1.651654
0.34845003 1.85 -1.645484
0.38715002 1.85 -1.6344659
0.40571997 1.85 -1.603055
0.43782994 1.85 -1.585253
0.48546001 1.85 -1.578339
0.51985997 1.85 -1.558512
0.55163997 1.85 -1.537375
0.59048992 1.85 -1.517213
0.63025004 1.85 -1.499849
0.66861993 1.85 -1.4793019
0.71543008 1.85 -1.461336
0.74724001 1.85 -1.435999
0.73077005 1.85 -1.3818049
0.80477005 1.85 -1.3758969
0.82848996 1.85 -1.342563
0.92134994 1.85 -1.338331
1.04819 1.85 -1.343568
-2.5968399 1.85 -1.83277
-2.5158601 1.85 -1.84665
-2.27946 1.85 -1.8120699
-2.18344 1.85 -1.8020699
-2.09478 1.85 -1.7919499
-2.03701 1.85 -1.80064
-1.96303 1.85 -1.7958699
-1.8895699 1.85 -1.78508
-1.82565 1.85 -1.78053
-1.77042 1.85 -1.78067
-1.7129499 1.85 -1.7829399
-1.6613309 1.85 -1.78069
-1.608991 1.85 -1.7749
-1.5563179 1.85 -1.7675699
-1.506888 1.85 -1.76004
-1.458961 1.85 -1.75343
-1.420085 1.85 -1.75313
-1.379701 1.85 -1.75441
-1.337594 1.85 -1.7468499
-1.298319 1.85 -1.7413399
-1.260983 1.85 -1.73616
-1.227054 1.85 -1.73654
-1.1965259 1.85 -1.7435899
-1.1657341 1.85 -1.7468699
-1.121972 1.85 -1.7211999
-1.093269 1.85 -1.72258
-1.06743 1.85 -1.7347399
-1.035675 1.85 -1.7254499
-1.00779 1.85 -1.72525
-0.97852802 1.85 -1.72637
-0.96264499 1.85 -1.76455
-0.939928 1.85 -1.7876199
-0.91572702 1.85 -1.8062299
-0.88796598 1.85 -1.81977
-0.86294198 1.85 -1.83665
-0.83374101 1.85 -1.83278
-0.80069298 1.85 -1.81154
-0.77288401 1.85 -1.81363
-0.74496043 1.85 -1.79952
-0.7153852 1.85 -1.7863299
-0.68770599 1.85 -1.77036
-0.66078317 1.85 -1.7602099
-0.6343773 1.85 -1.7491599
-0.60836899 1.85 -1.7199399
-0.58562928 1.85 -1.69554
-0.55793399 1.85 -1.68559
-0.53403097 1.85 -1.6793799
-0.51314402 1.85 -1.6381249
-0.49397901 1.85 -1.613979
-0.47211999 1.85 -1.600952
-0.44767499 1.85 -1.603901
-0.41791499 1.85 -1.6211619
-0.39451399 1.85 -1.618035
-0.37068099 1.85 -1.61393
-0.34558401 1.85 -1.6130069
-0.32462999 1.85 -1.5991371
-0.29740798 1.85 -1.600958
-0.26503697 1.85 -1.615419
-0.230101 1.85 -1.6324869
-0.198384 1.85 -1.63964
-0.16959701 1.85 -1.638347
-0.13086699 1.85 -1.6539819
-0.10039102 1.85 -1.652874
-0.066486999 1.85 -1.652436
-0.04594098 1.85 -1.633265
0.0041669775 1.85 -1.656673
0.048468009 1.85 -1.67204
0.08715196 1.85 -1.67307
0.11402799 1.85 -1.657315
0.14175595 1.85 -1.6411719
0.19483598 1.85 -1.655614
0.23771299 1.85 -1.655727
0.27664599 1.85 -1.65028
0.32151303 1.85 -1.6470189
0.36747 1.85 -1.645418
0.39712998 1.85 -1.624541
0.42429003 1.85 -1.601007
0.43676004 1.85 -1.5652339
0.50357991 1.85 -1.574595
0.53817004 1.85 -1.55435
0.56099993 1.85 -1.5244761
0.60999995 1.85 -1.512704
0.64808995 1.85 -1.493135
0.6883499 1.85 -1.472124
0.72902995 1.85 -1.451993
0.76771992 1.85 -1.428425
0.73049003 1.85 -1.3639719
0.81948 1.85 -1.364061
0.85957998 1.85 -1.3390499
0.97093004 1.85 -1.340802
-2.6377199 1.85 -1.85891
-2.2793701 1.85 -1.81134
-2.18364 1.85 -1.80222
-2.1045201 1.85 -1.7989799
-2.02823 1.85 -1.7939999
-1.96428 1.85 -1.7963399
-1.89566 1.85 -1.79065
-1.83629 1.85 -1.7907499
-1.77055 1.85 -1.7801999
-1.7149799 1.85 -1.78206
-1.664618 1.85 -1.7801
-1.611122 1.85 -1.7737399
-1.5623469 1.85 -1.7707299
-1.5053229 1.85 -1.75493
-1.4650151 1.85 -1.7555
-1.42426 1.85 -1.7566299
-1.386135 1.85 -1.75646
-1.339517 1.85 -1.7453599
-1.302559 1.85 -1.7431999
-1.2626519 1.85 -1.73438
-1.230019 1.85 -1.7358299
-1.19678 1.85 -1.73454
-1.169361 1.85 -1.7454699
-1.125344 1.85 -1.71566
-1.094166 1.85 -1.71656
-1.072337 1.85 -1.7336999
-1.038717 1.85 -1.72492
-1.009267 1.85 -1.7229398
-0.981332 1.85 -1.7263299
-0.96327502 1.85 -1.7574
-0.942653 1.85 -1.78953
-0.91732001 1.85 -1.8046099
-0.89000303 1.85 -1.8168399
-0.86443901 1.85 -1.82804
-0.83649099 1.85 -1.83618
-0.80514997 1.85 -1.81455
-0.77609402 1.85 -1.8143399
-0.74675387 1.85 -1.78511
-0.71901619 1.85 -1.78567
-0.69082057 1.85 -1.76055
-0.66491199 1.85 -1.7674899
-0.63831532 1.85 -1.75554
-0.61125189 1.85 -1.7301199
-0.58850461 1.85 -1.69125
-0.56224298 1.85 -1.6767499
-0.53699398 1.85 -1.68028
-0.51563799 1.85 -1.644601
-0.49560899 1.85 -1.625465
-0.472671 1.85 -1.618695
-0.44916201 1.85 -1.610162
-0.42204699 1.85 -1.6191469
-0.39718798 1.85 -1.6214089
-0.37272498 1.85 -1.6182441
-0.348979 1.85 -1.616544
-0.32360899 1.85 -1.614483
-0.30060598 1.85 -1.606264
-0.26823097 1.85 -1.616509
-0.23325299 1.85 -1.633922
-0.201234 1.85 -1.641853
-0.17386402 1.85 -1.641102
-0.14015304 1.85 -1.643955
-0.107518 1.85 -1.6535159
-0.072114035 1.85 -1.655286
-0.051068947 1.85 -1.636865
-0.015340013 1.85 -1.640003
0.04077597 1.85 -1.67108
0.080696002 1.85 -1.67759
0.11105902 1.85 -1.666345
0.12891401 1.85 -1.6391599
0.18237002 1.85 -1.654871
0.22195502 1.85 -1.649817
0.262903 1.85 -1.647187
0.31500599 1.85 -1.653932
0.35271999 1.85 -1.64318
0.3896701 1.85 -1.6309539
0.41034994 1.85 -1.6019139
0.44047996 1.85 -1.580845
0.49359998 1.85 -1.578082
0.52159995 1.85 -1.555765
0.55492002 1.85 -1.533183
0.59681004 1.85 -1.519457
0.63626999 1.85 -1.500181
0.68325001 1.85 -1.483614
0.72302002 1.85 -1.462653
0.74887997 1.85 -1.4318939
0.73190004 1.85 -1.379017
0.80806988 1.85 -1.373027
0.83104998 1.85 -1.33929
0.92188996 1.85 -1.334473
-2.6505799 1.85 -1.84029
-2.2035601 1.85 -1.79381
-2.13256 1.85 -1.79798
-2.05462 1.85 -1.7937499
-2.0044899 1.85 -1.8078799
-1.9210999 1.85 -1.7897199
-1.8616099 1.85 -1.79096
-1.79889 1.85 -1.78543
-1.7440699 1.85 -1.78406
-1.68353 1.85 -1.78154
-1.629486 1.85 -1.77376
-1.576833 1.85 -1.76824
-1.52394 1.85 -1.7556499
-1.4825189 1.85 -1.7568599
-1.435753 1.85 -1.7510099
-1.390152 1.85 -1.7420799
-1.361585 1.85 -1.7536099
-1.31519 1.85 -1.7417899
-1.278067 1.85 -1.7365999
-1.246559 1.85 -1.74233
-1.211306 1.85 -1.7395699
-1.1825529 1.85 -1.7453399
-1.145141 1.85 -1.7356199
-1.1040469 1.85 -1.7138499
-1.082672 1.85 -1.73376
-1.054859 1.85 -1.73643
-1.0218 1.85 -1.7261999
-0.99314404 1.85 -1.7269599
-0.96719801 1.85 -1.7371399
-0.94978499 1.85 -1.7792599
-0.92521298 1.85 -1.7964499
-0.90080601 1.85 -1.81242
-0.87426502 1.85 -1.8266
-0.84746701 1.85 -1.83784
-0.81698698 1.85 -1.8204
-0.78673702 1.85 -1.80753
-0.75732952 1.85 -1.7913499
-0.72959203 1.85 -1.80118
-0.7000519 1.85 -1.7828399
-0.67359155 1.85 -1.7674899
-0.64769751 1.85 -1.76027
-0.62031889 1.85 -1.7345899
-0.59687781 1.85 -1.7156999
-0.57145578 1.85 -1.6904999
-0.54822201 1.85 -1.6754
-0.52531898 1.85 -1.660236
-0.50494397 1.85 -1.633718
-0.48545799 1.85 -1.609803
-0.460794 1.85 -1.6064149
-0.437163 1.85 -1.604943
-0.40936497 1.85 -1.618855
-0.38564798 1.85 -1.618546
-0.36036199 1.85 -1.6150689
-0.33970699 1.85 -1.604338
-0.313034 1.85 -1.606793
-0.281014 1.85 -1.618592
-0.25711498 1.85 -1.612532
-0.219016 1.85 -1.6350759
-0.18846498 1.85 -1.639779
-0.15869103 1.85 -1.640553
-0.12069099 1.85 -1.65149
-0.087905034 1.85 -1.655126
-0.058872029 1.85 -1.648602
-0.03702198 1.85 -1.628028
0.027534025 1.85 -1.6754899
0.067968026 1.85 -1.68108
0.095181003 1.85 -1.66664
0.11878099 1.85 -1.646783
0.15280999 1.85 -1.638723
0.206495 1.85 -1.653648
0.24792202 1.85 -1.652737
0.29224703 1.85 -1.650794
0.33774003 1.85 -1.649022
0.37549004 1.85 -1.636443
0.39957997 1.85 -1.611611
0.43634996 1.85 -1.5967979
0.45372996 1.85 -1.564855
0.5129301 1.85 -1.566473
0.53548998 1.85 -1.539328
0.57155007 1.85 -1.51931
0.62009996 1.85 -1.507303
0.66856998 1.85 -1.493794
0.71494991 1.85 -1.476668
0.74725002 1.85 -1.449039
0.72663003 1.85 -1.39317
0.79219991 1.85 -1.3846459
0.82554001 1.85 -1.354515
0.8805899 1.85 -1.335186
0.98466998 1.85 -1.33486
-2.6645699 1.88 -1.84856
-2.4604101 1.88 -1.85084
-2.31849 1.88 -1.8196
-2.2118001 1.88 -1.8024399
-2.1291301 1.88 -1.79914
-2.05231 1.88 -1.795
-1.97379 1.88 -1.7872399
-1.9113599 1.88 -1.78711
-1.8445699 1.88 -1.7828
-1.78351 1.88 -1.7792699
-1.72542 1.88 -1.7725099
-1.67186 1.88 -1.7735699
-1.616964 1.88 -1.7684
-1.562849 1.88 -1.7609699
-1.5115219 1.88 -1.7501299
-1.470487 1.88 -1.7530299
-1.430758 1.88 -1.7526999
-1.388671 1.88 -1.74939
-1.347931 1.88 -1.7450999
-1.303143 1.88 -1.73356
-1.270324 1.88 -1.73581
-1.2331569 1.88 -1.7347399
-1.201198 1.88 -1.73542
-1.1695629 1.88 -1.7359999
-1.128943 1.88 -1.71845
-1.0980539 1.88 -1.7195699
-1.074746 1.88 -1.73306
-1.0392001 1.88 -1.72078
-1.012412 1.88 -1.7248199
-0.98506701 1.88 -1.7283499
-0.96861702 1.88 -1.77123
-0.94577497 1.88 -1.7969999
-0.91941297 1.88 -1.8082399
-0.893067 1.88 -1.8226099
-0.86530298 1.88 -1.82739
-0.83468896 1.88 -1.82355
-0.80549097 1.88 -1.81476
-0.77384901 1.88 -1.7934599
-0.74402177 1.88 -1.78079
-0.7174843 1.88 -1.7854899
-0.68992388 1.88 -1.7603199
-0.66226977 1.88 -1.7602199
-0.6354934 1.88 -1.7419399
-0.61126041 1.88 -1.71961
-0.58668649 1.88 -1.67932
-0.56007802 1.88 -1.67878
-0.53649998 1.88 -1.661049
-0.515481 1.88 -1.638754
-0.49436399 1.88 -1.610491
-0.470085 1.88 -1.618153
-0.44788098 1.88 -1.6098599
-0.41916499 1.88 -1.624853
-0.394196 1.88 -1.621066
-0.36866501 1.88 -1.6229939
-0.34264097 1.88 -1.620719
-0.320023 1.88 -1.60996
-0.29101199 1.88 -1.61994
-0.25939599 1.88 -1.6271451
-0.22196798 1.88 -1.6474609
-0.19663401 1.88 -1.643237
-0.16819601 1.88 -1.638467
-0.12835 1.88 -1.656022
-0.092624053 1.88 -1.6625301
-0.068842992 1.88 -1.648602
-0.042567 1.88 -1.636739
0.027018981 1.88 -1.69072
0.057844952 1.88 -1.68162
0.088733986 1.88 -1.67062
0.112682 1.88 -1.652316
0.14014299 1.88 -1.637632
0.20123799 1.88 -1.659639
0.23864599 1.88 -1.6535059
0.29106203 1.88 -1.660333
0.33247003 1.88 -1.655128
0.37067005 1.88 -1.6430969
0.39557001 1.88 -1.616892
0.42613003 1.88 -1.596913
0.45837006 1.88 -1.5786539
0.50703007 1.88 -1.5701079
0.53443998 1.88 -1.54759
0.57373995 1.88 -1.529801
0.61635 1.88 -1.514876
0.65793008 1.88 -1.49626
0.69935995 1.88 -1.474605
0.73074001 1.88 -1.448939
0.72150999 1.88 -1.399205
0.79119998 1.88 -1.39009
0.82129008 1.88 -1.358974
0.90372998 1.88 -1.3522379
0.99281996 1.88 -1.343405
-2.6511099 1.88 -1.83842
-2.49738 1.88 -1.87379
-2.3197401 1.88 -1.8178
-2.20417 1.88 -1.7929699
-2.1301601 1.88 -1.7974
-2.05481 1.88 -1.7939
-1.9829999 1.88 -1.7895499
-1.9124399 1.88 -1.78441
-1.84905 1.88 -1.78096
-1.7869599 1.88 -1.7754499
-1.72349 1.88 -1.7656999
-1.6702399 1.88 -1.7699699
-1.614701 1.88 -1.7627599
-1.5619359 1.88 -1.75622
-1.519601 1.88 -1.7568299
-1.4640729 1.88 -1.74129
-1.431355 1.88 -1.75167
-1.387504 1.88 -1.7444499
-1.34937 1.88 -1.74479
-1.3028309 1.88 -1.72909
-1.273621 1.88 -1.7382599
-1.23388 1.88 -1.72841
-1.203343 1.88 -1.73463
-1.172825 1.88 -1.7391599
-1.141259 1.88 -1.7370698
-1.0987279 1.88 -1.7130799
-1.076685 1.88 -1.7320501
-1.043734 1.88 -1.7244799
-1.014406 1.88 -1.72022
-0.98593801 1.88 -1.7218299
-0.96036804 1.88 -1.72372
-0.95056897 1.88 -1.7953
-0.92417699 1.88 -1.80335
-0.897268 1.88 -1.8174599
-0.87095398 1.88 -1.8337799
-0.837681 1.88 -1.80897
-0.81140798 1.88 -1.8190799
-0.78026497 1.88 -1.80541
-0.7527234 1.88 -1.7914499
-0.72255611 1.88 -1.77675
-0.69540298 1.88 -1.75295
-0.66910475 1.88 -1.7642499
-0.64138162 1.88 -1.7516199
-0.61557609 1.88 -1.7305999
-0.59295321 1.88 -1.67706
-0.56582201 1.88 -1.6743599
-0.541053 1.88 -1.67703
-0.52016002 1.88 -1.641766
-0.498382 1.88 -1.617584
-0.47392797 1.88 -1.621763
-0.45218399 1.88 -1.611123
-0.42307299 1.88 -1.6258709
-0.39985198 1.88 -1.621909
-0.37435299 1.88 -1.625821
-0.349471 1.88 -1.61935
-0.325755 1.88 -1.614203
-0.29520801 1.88 -1.623752
-0.26741299 1.88 -1.623493
-0.23102702 1.88 -1.643067
-0.203355 1.88 -1.642874
-0.17515601 1.88 -1.63727
-0.13746004 1.88 -1.652734
-0.10047697 1.88 -1.663312
-0.075149998 1.88 -1.6539099
-0.052815005 1.88 -1.6347181
0.013202982 1.88 -1.68468
0.049578026 1.88 -1.68231
0.082443014 1.88 -1.67535
0.10785903 1.88 -1.660593
0.13416399 1.88 -1.642283
0.18463601 1.88 -1.65423
0.22908898 1.88 -1.6554919
0.27243701 1.88 -1.65502
0.31830499 1.88 -1.652393
0.37289998 1.88 -1.6575121
0.39689001 1.88 -1.631163
0.42604002 1.88 -1.609735
0.42858002 1.88 -1.566577
0.50155002 1.88 -1.57967
0.53455001 1.88 -1.5592849
0.55760998 1.88 -1.5310819
0.60124999 1.88 -1.516416
0.65230006 1.88 -1.504306
0.68546993 1.88 -1.478925
0.7199499 1.88 -1.4548939
0.76614004 1.88 -1.4346139
0.72744995 1.88 -1.3700759
0.81715006 1.88 -1.3713859
0.85664004 1.88 -1.345718
0.96031994 1.88 -1.34426
-2.5341802 1.88 -1.87412
-2.2332001 1.88 -1.7933999
-2.15012 1.88 -1.79106
-2.0803199 1.88 -1.7936999
-2.01318 1.88 -1.7964399
-1.9362299 1.88 -1.78474
-1.8694699 1.88 -1.7818199
-1.80713 1.88 -1.77774
-1.7521199 1.88 -1.7765899
-1.68864 1.88 -1.7683499
-1.638714 1.88 -1.7673399
-1.5894619 1.88 -1.76456
-1.531442 1.88 -1.74875
-1.479488 1.88 -1.73755
-1.450421 1.88 -1.7521999
-1.404662 1.88 -1.74584
-1.364104 1.88 -1.7400999
-1.325201 1.88 -1.7365799
-1.285363 1.88 -1.7318199
-1.247502 1.88 -1.72674
-1.2174489 1.88 -1.7322299
-1.187909 1.88 -1.73778
-1.15374 1.88 -1.7314699
-1.122556 1.88 -1.73373
-1.091742 1.88 -1.7304599
-1.058977 1.88 -1.72348
-1.027532 1.88 -1.72137
-0.99817497 1.88 -1.71781
-0.97088003 1.88 -1.72363
-0.956846 1.88 -1.7704799
-0.935664 1.88 -1.79686
-0.90839201 1.88 -1.8052399
-0.882595 1.88 -1.8240799
-0.84838402 1.88 -1.8002599
-0.82436597 1.88 -1.8206899
-0.79396099 1.88 -1.8163199
-0.7646758 1.88 -1.79452
-0.73617381 1.88 -1.78178
-0.70720577 1.88 -1.75236
-0.6810385 1.88 -1.7639399
-0.6546002 1.88 -1.75589
-0.62875903 1.88 -1.7344499
-0.60371423 1.88 -1.68985
-0.5774467 1.88 -1.67424
-0.55272597 1.88 -1.67493
-0.52990097 1.88 -1.643723
-0.50703299 1.88 -1.637369
-0.487425 1.88 -1.6147701
-0.46195 1.88 -1.619473
-0.437998 1.88 -1.616995
-0.41064098 1.88 -1.625423
-0.38705799 1.88 -1.619489
-0.36131999 1.88 -1.620903
-0.33586699 1.88 -1.621804
-0.31021699 1.88 -1.61963
-0.282756 1.88 -1.618765
-0.248592 1.88 -1.637727
-0.213834 1.88 -1.647555
-0.18914802 1.88 -1.640397
-0.15469597 1.88 -1.64749
-0.123152 1.88 -1.654007
-0.085713014 1.88 -1.662541
-0.064180002 1.88 -1.6460171
-0.036629006 1.88 -1.633757
0.02493103 1.88 -1.67759
0.064619973 1.88 -1.6822799
0.093067005 1.88 -1.669518
0.11180295 1.88 -1.640848
0.15085603 1.88 -1.640707
0.21170695 1.88 -1.6644009
0.24821301 1.88 -1.655201
0.29537407 1.88 -1.65613
0.34097001 1.88 -1.656456
0.37338004 1.88 -1.638721
0.39855 1.88 -1.612777
0.41972002 1.88 -1.5859001
0.45738003 1.88 -1.572297
0.51270992 1.88 -1.5688419
0.53917009 1.88 -1.544487
0.57610995 1.88 -1.5259249
0.62019998 1.88 -1.510368
0.66087002 1.88 -1.490559
0.70759994 1.88 -1.472892
0.73306006 1.88 -1.44423
0.73802 1.88 -1.40053
0.80593008 1.88 -1.391854
0.82475001 1.88 -1.355634
0.90701002 1.88 -1.349066
1.0025301 1.88 -1.342037
-2.66571 1.88 -1.8788
-2.5525699 1.88 -1.8751099
-2.2566099 1.88 -1.8010699
-2.1639001 1.88 -1.79063
-2.07704 1.88 -1.7829599
-2.0176702 1.88 -1.7914599
-1.9476299 1.88 -1.78614
-1.8756 1.88 -1.77775
-1.82414 1.88 -1.78211
-1.7575099 1.88 -1.77305
-1.70239 1.88 -1.77468
-1.642862 1.88 -1.763
-1.595224 1.88 -1.7623199
-1.543043 1.88 -1.75354
-1.490986 1.88 -1.74356
-1.454106 1.88 -1.7486099
-1.409641 1.88 -1.74242
-1.373208 1.88 -1.74641
-1.332062 1.88 -1.7379301
-1.292769 1.88 -1.7338799
-1.2563369 1.88 -1.7318699
-1.222945 1.88 -1.73079
-1.1916909 1.88 -1.73593
-1.156633 1.88 -1.73015
-1.12533 1.88 -1.72901
-1.096318 1.88 -1.73268
-1.064684 1.88 -1.7256299
-1.0330549 1.88 -1.7215899
-1.0050011 1.88 -1.7224699
-0.97639799 1.88 -1.7233399
-0.95727098 1.88 -1.7491699
-0.940768 1.88 -1.79513
-0.9109 1.88 -1.7973
-0.88707203 1.88 -1.8202
-0.85484099 1.88 -1.80302
-0.82848901 1.88 -1.8158399
