# .PCD v0.7 - Point Cloud Data file format
VERSION 0.7
FIELDS x y z
SIZE 4 4 4
TYPE F F F
COUNT 1 1 1
WIDTH 1606
HEIGHT 1
VIEWPOINT 0 0 0 1 0 0 0
POINTS 1606
DATA ascii
2.0753303 4.3707228 1.8900448
2.1000395 4.3700476 1.8987217
2.1263359 4.3693323 1.9101374
2.1511579 4.3686566 1.9207343
2.177593 4.367938 1.9324396
2.2027805 4.3672094 1.9183089
2.2268021 4.3665404 1.919751
2.2516456 4.3658485 1.9210832
2.2773063 4.3651247 1.9173391
2.3007789 4.3644733 1.9202514
2.3272922 4.3637214 1.9140687
2.3527474 4.3630123 1.9151917
2.3767438 4.3623424 1.9158946
2.4016173 4.3616562 1.9211987
2.4298337 4.3608456 1.908662
2.4552791 4.3601456 1.914881
2.4796097 4.3594775 1.9219686
2.5146008 4.3584557 1.8968953
2.5431154 4.3576536 1.8940324
2.5750644 4.3567491 1.8872536
2.5993829 4.3560848 1.8964542
2.633846 4.3551006 1.8842884
2.667213 4.3541594 1.8794823
2.6980705 4.353303 1.8831365
2.7295034 4.3524218 1.8814116
2.7260935 4.3526373 1.9505739
2.746264 4.352107 1.9695863
2.7736976 4.3513551 1.9782984
2.7966735 4.3507376 1.9926839
2.8202336 4.3501053 2.0073676
2.8536789 4.3491659 2.0047174
2.880167 4.3484488 2.0182691
2.9702337 4.3458123 1.9501243
3.0166512 4.3445005 1.9417626
3.0516448 4.3435369 1.9502739
3.0914321 4.3424301 1.9533668
3.1235247 4.3415594 1.9685078
3.1817436 4.3399134 1.9579264
3.2168572 4.338954 1.9706185
3.2648914 4.3376179 1.9742073
3.3069193 4.336463 1.9859349
3.3515635 4.3352318 1.9951115
3.3973894 4.3339715 2.0072231
3.4364285 4.3329096 2.0238719
3.4706712 4.3319912 2.046072
3.5451796 4.3299036 2.0433848
3.5526483 4.3297701 2.0865834
3.6238663 4.3277855 2.0902829
3.684917 4.3261027 2.1038353
3.7523901 4.3242354 2.1145434
3.828696 4.3221216 2.1255341
0.21042991 4.4229684 1.9566028
0.31140113 4.4201307 1.9480197
0.41743827 4.4171653 1.947109
0.51547623 4.4144235 1.9461966
0.59839678 4.412096 1.9408619
0.67661762 4.409904 1.9376849
0.75724435 4.4076552 1.9405246
0.81258082 4.4060855 1.9273304
0.87793899 4.4042559 1.9258696
0.95126104 4.4022188 1.9328972
1.0125062 4.400506 1.9325974
1.0634013 4.399075 1.9278188
1.1123388 4.3976903 1.9180927
1.2127937 4.3949652 1.9655749
1.2151177 4.3948231 1.921548
1.2571781 4.3936377 1.9160278
1.2976421 4.392498 1.9110886
1.3456241 4.3911686 1.9175794
1.3813969 4.3901558 1.9102342
1.4179962 4.3891277 1.9076805
1.456807 4.3880429 1.9075384
1.493327 4.3870192 1.9060037
1.5293392 4.3860106 1.904848
1.5604243 4.3851376 1.9023367
1.600459 4.3840332 1.911018
1.6295917 4.3832111 1.9063065
1.6676126 4.382165 1.9160712
1.6988693 4.3812914 1.9160643
1.728036 4.3804731 1.9144791
1.7587315 4.3796225 1.918686
1.7836139 4.3789163 1.912448
1.8059686 4.3782659 1.8979261
1.8062062 4.3781171 1.8163198
1.8328568 4.3773499 1.8035815
1.8589094 4.3766088 1.796173
1.8996444 4.375535 1.8336624
1.9259822 4.3747826 1.823976
1.9593095 4.3738976 1.8510801
1.9881644 4.3731108 1.8621438
2.0168867 4.3723173 1.8678221
2.0438924 4.3715763 1.8754444
2.0711503 4.3708315 1.8851837
2.0970235 4.3701267 1.8959395
2.1230159 4.3694248 1.9100555
2.149672 4.36869 1.9160192
2.1727352 4.3680701 1.9301915
2.200016 4.3672886 1.9194878
2.2257104 4.3665705 1.9196954
2.2496457 4.3659315 1.9367265
2.2755895 4.3651781 1.9206839
2.2999685 4.3644843 1.9133487
2.3249483 4.3637815 1.9109383
2.3511872 4.3630543 1.9144101
2.3742521 4.3624215 1.92126
2.4002497 4.3616986 1.9234533
2.4279456 4.3609076 1.9138577
2.4541068 4.3601761 1.9137775
2.4793909 4.3594847 1.9226869
2.5152967 4.3584294 1.8929131
2.5423868 4.3576746 1.8943025
2.5737443 4.3567843 1.8864801
2.5987294 4.3561029 1.896454
2.636858 4.3550057 1.8782384
2.6672492 4.354157 1.8786672
2.6960883 4.3533573 1.8821398
2.7276449 4.3524771 1.8835373
2.7244544 4.3526864 1.9522312
2.7474074 4.3520675 1.9653177
2.7734601 4.3513594 1.9769654
2.7953334 4.3507767 1.9935917
2.8183827 4.3501539 2.0057583
2.8505075 4.3492627 2.0095229
2.8757737 4.3485761 2.0208659
2.973027 4.345726 1.945627
3.0155244 4.3445311 1.9414538
3.0531631 4.3434868 1.9459212
3.0883291 4.3425207 1.9555919
3.1232777 4.3415623 1.9661506
3.1838601 4.3398466 1.953265
3.2178504 4.3389254 1.9702291
3.2634089 4.337657 1.9728863
3.307056 4.3364553 1.9837435
3.3559666 4.3351002 1.9906017
3.3958359 4.3340144 2.0068245
3.4249549 4.3332424 2.0310149
3.4710543 4.3319788 2.0452991
3.5173314 4.3307104 2.0596824
3.5649295 4.3294072 2.0755091
3.5935025 4.328661 2.105648
3.6908221 4.3259258 2.0968943
3.7532854 4.3242054 2.1119113
3.8194828 4.3223848 2.1288643
0.11550832 4.4255939 1.9405148
0.2630794 4.4214883 1.9518231
0.36147141 4.4187241 1.943734
0.47351313 4.4156008 1.9488415
0.55894542 4.4132028 1.9430478
0.64608121 4.4107704 1.944868
0.73688531 4.4082441 1.9517581
0.78561306 4.4068499 1.9335741
0.8467598 4.4051285 1.9264824
0.91087592 4.4033356 1.9262382
0.97806907 4.4014626 1.9289318
1.0347319 4.3998775 1.9282134
1.0842116 4.3984747 1.917123
1.1378326 4.3969789 1.9188887
1.2233586 4.3946505 1.9546846
1.2436919 4.3940344 1.9271572
1.2837747 4.3929038 1.921304
1.3239009 4.3917723 1.9155478
1.3594526 4.3907642 1.9075675
1.3936056 4.3897991 1.9013865
1.4376092 4.3885756 1.9053277
1.4726913 4.3875899 1.9025269
1.5067842 4.3866324 1.8997701
1.545918 4.3855462 1.9041766
1.5771703 4.3846674 1.9013821
1.6143981 4.3836384 1.9080575
1.6462681 4.3827438 1.9056679
1.6820729 4.3817596 1.9155687
1.7149115 4.3808441 1.9168471
1.7400075 4.3801327 1.9111447
1.770045 4.3792963 1.9127134
1.8006686 4.3784409 1.9134458
1.7941002 4.3784623 1.8201859
1.8198583 4.3777246 1.8100114
1.8457928 4.3769784 1.7978684
1.8787131 4.3760681 1.8037134
1.9129636 4.3751502 1.8262457
1.9419277 4.3743439 1.8281355
1.9741458 4.3734803 1.8494563
2.0035808 4.3726854 1.8656108
2.0333374 4.3718767 1.8788429
2.0607615 4.3711243 1.8867849
2.0861688 4.3704267 1.8940656
2.113111 4.3696871 1.9018431
2.139142 4.3689923 1.9205995
2.1630132 4.3683424 1.9305173
2.1894839 4.3676023 1.9302865
2.2145143 4.3668833 1.9191971
2.238019 4.3662424 1.9286553
2.2636044 4.3655109 1.919305
2.2868686 4.3648849 1.9331976
2.3142037 4.3640828 1.9114238
2.339957 4.3633676 1.9140338
2.3652127 4.3626661 1.916706
2.3885739 4.3620272 1.9247267
2.4138091 4.361321 1.9242928
2.4441693 4.360446 1.9090102
2.467284 4.359827 1.9245484
2.4937654 4.3590765 1.9187813
2.5306218 4.3580041 1.8946681
2.5578651 4.3572392 1.892764
2.5906084 4.3563147 1.8874753
2.622205 4.3554201 1.8808511
2.6519523 4.3545876 1.8803757
2.685034 4.3536587 1.8780659
2.7134225 4.3528738 1.8831226
2.7124767 4.3530073 1.9443967
2.7374327 4.3523321 1.9570994
2.7603784 4.3517199 1.9737917
2.7849455 4.3510542 1.9861325
2.8083317 4.3504238 1.9993821
2.8355446 4.3496799 2.0090966
2.8668644 4.3488116 2.0130582
2.8907907 4.3481669 2.0269871
2.9966547 4.3450589 1.9415058
3.033859 4.3440294 1.9477987
3.0687838 4.34307 1.9574897
3.1090636 4.3419476 1.9591968
3.1493006 4.3408375 1.9678888
3.2064266 4.3392258 1.9593117
3.2484889 4.3380623 1.966146
3.2862811 4.3370304 1.9803362
3.3291447 4.3358502 1.9906381
3.3749347 4.3345909 2.0024037
3.4145675 4.3335104 2.0178757
3.4536133 4.3324513 2.0366187
3.5021477 4.3311205 2.0514326
3.5433946 4.329999 2.0695846
3.5774398 4.3290925 2.0954323
3.682441 4.3261342 2.0821738
3.7457032 4.3243895 2.0956776
3.7663627 4.3238807 2.1351216
0.20403361 4.4531298 1.939604
0.31712461 4.4499645 1.9375829
0.40094733 4.4475994 1.9247601
0.49167919 4.445056 1.9205244
0.5946331 4.4421911 1.9283588
0.67591071 4.4399142 1.9254439
0.74795628 4.4378934 1.9213257
0.82421863 4.4357672 1.9243823
0.89176106 4.433876 1.9229084
0.94833577 4.4322834 1.9164705
1.0127134 4.4304938 1.9221232
1.0702163 4.4288845 1.9211109
1.1190304 4.4275036 1.9115045
1.1851552 4.4256811 1.9264624
1.2186636 4.4247169 1.9106127
1.2606519 4.4235353 1.9061508
1.3106904 4.4221478 1.9123671
1.3473977 4.4211063 1.9034877
1.38661 4.4200034 1.8997957
1.4303485 4.4187884 1.9040775
1.4635516 4.4178529 1.8999736
1.4998686 4.4168329 1.8970401
1.5359797 4.415822 1.8961076
1.56936 4.4148898 1.8968539
1.6029829 4.4139423 1.8925079
1.6376724 4.4129829 1.8984308
1.6738591 4.411984 1.905485
1.7074569 4.4110556 1.9118108
1.738147 4.4101963 1.9109036
1.7671162 4.40939 1.9128331
1.7935246 4.4086361 1.9038336
1.8157277 4.4079881 1.88833
1.8181257 4.4077868 1.8113152
1.8460687 4.406991 1.8026718
1.875813 4.4061604 1.803109
1.9042361 4.4053688 1.8051096
1.939239 4.4044247 1.8247476
1.9683172 4.4036303 1.8351526
2.0013592 4.4027429 1.8559302
2.0322218 4.4019213 1.8793184
2.0583568 4.4011974 1.8833256
2.0852332 4.4004574 1.8899045
2.1116953 4.3997383 1.9014382
2.1366744 4.3990598 1.9129128
2.1633611 4.3983507 1.9342211
2.186502 4.3977036 1.9339373
2.2136407 4.3969355 1.9283355
2.2377844 4.396245 1.9195187
2.2628961 4.3955517 1.9243878
2.2863882 4.3949223 1.9400412
2.3127301 4.394165 1.9282136
2.3378081 4.3934441 1.9167895
2.3630366 4.3927431 1.91914
2.3892965 4.3920174 1.9238828
2.4137363 4.3913393 1.926851
2.4409683 4.3905735 1.9241804
2.4655137 4.3898931 1.9273802
2.4923661 4.3891382 1.9248375
2.528028 4.3881054 1.9045383
2.5568047 4.387291 1.8986734
2.5879073 4.3864174 1.8962381
2.6216874 4.3854489 1.8823948
2.6510916 4.384644 1.8922007
2.6786017 4.3838825 1.8964378
2.7112112 4.3829675 1.8944451
2.7143722 4.382978 1.9512116
2.7374902 4.3823557 1.9649899
2.7634075 4.38165 1.9753911
2.7885652 4.380969 1.9884979
2.8116534 4.3803506 2.0037766
2.8387802 4.3796091 2.0135696
2.8707075 4.3787212 2.0162482
2.896008 4.3780389 2.0304585
3.0035253 4.3748837 1.9445791
3.0359154 4.3739948 1.9538344
3.0749321 4.3729162 1.9606775
3.1160913 4.3717747 1.9658908
3.1469848 4.3709369 1.9807235
3.2116101 4.3691025 1.9646728
3.2549102 4.3679066 1.9731752
3.2979765 4.3667202 1.983104
3.337781 4.365634 1.9983306
3.3870428 4.3642693 2.0051937
3.421736 4.3633404 2.0287216
3.4678879 4.3620701 2.0402343
3.5036838 4.3611126 2.0648336
3.5577445 4.359621 2.0762076
3.5849905 4.3589153 2.1079004
3.6905231 4.3559408 2.0942428
3.753243 4.3542156 2.1101379
0.10158944 4.4559784 1.9313502
0.21195078 4.452879 1.9227349
0.31538892 4.449976 1.9164335
0.44397259 4.4464035 1.9289248
0.54049706 4.4437065 1.9294896
0.62966704 4.4412174 1.9314282
0.70736241 4.4390402 1.9283304
0.77165604 4.4372296 1.920692
0.8546108 4.434927 1.9299859
0.90772724 4.433423 1.9191341
0.96831322 4.4317245 1.9161962
1.0324718 4.4299397 1.9210628
1.0827367 4.4285173 1.9110868
1.1365654 4.4270129 1.9113027
1.1973474 4.425333 1.9224896
1.2313911 4.424356 1.9075626
1.2771139 4.4230757 1.9061803
1.3228382 4.4218035 1.909902
1.3583516 4.4207964 1.9017038
1.3974565 4.4196968 1.897769
1.4371495 4.4185891 1.8988044
1.477016 4.4174795 1.9015914
1.513023 4.4164691 1.8994834
1.548402 4.4154787 1.8987061
1.5830476 4.4145088 1.8978133
1.6128125 4.4136724 1.8950602
1.6516068 4.4126034 1.904125
1.6814566 4.4117651 1.9020374
1.7162439 4.4108057 1.9091463
1.7469639 4.4099498 1.9109244
1.7761111 4.4091344 1.9105643
1.8028541 4.4083776 1.9051696
1.8118335 4.4080353 1.8529121
1.8263159 4.407548 1.8055567
1.8530227 4.4067783 1.7923129
1.8834389 4.4059434 1.8010833
1.9200175 4.4049616 1.824464
1.9483882 4.4041748 1.8281732
1.980335 4.4033184 1.8489226
2.0120203 4.4024611 1.865109
2.0386481 4.4017344 1.8754169
2.0671954 4.400959 1.8883889
2.0922058 4.4002666 1.8920692
2.1206436 4.3994975 1.9069146
2.1448429 4.3988419 1.9188789
2.171469 4.3981371 1.9413981
2.19543 4.3974495 1.9315691
2.2204099 4.3967352 1.9223577
2.2445076 4.3960605 1.9214574
2.269311 4.3953648 1.9201955
2.2928901 4.3947363 1.9377717
2.3186715 4.3939939 1.9252602
2.3456521 4.3932223 1.9152941
2.3696361 4.39256 1.9201384
2.3943963 4.3918724 1.9226834
2.4216833 4.3911037 1.9189998
2.4484396 4.3903561 1.9191989
2.4746509 4.3896255 1.9204305
2.5011959 4.3888855 1.9216363
2.5356944 4.3878827 1.8995361
2.5673146 4.3869858 1.8919448
2.5964153 4.3861709 1.8913232
2.628442 4.3852601 1.8823196
2.6594117 4.3843956 1.8831081
2.692735 4.3834596 1.8805547
2.7216229 4.3826609 1.8855087
2.7212219 4.3827791 1.9470168
2.7431848 4.3821964 1.9648677
2.7683535 4.3815098 1.9743506
2.7920048 4.3808765 1.9904662
2.8154011 4.3802462 2.0042517
2.8460793 4.379395 2.0077608
2.8693848 4.3787718 2.0240648
2.9007256 4.3779068 2.0301006
3.006139 4.3748131 1.9458152
3.0417132 4.3738303 1.9526416
3.0790677 4.372798 1.9594157
3.1138897 4.3718424 1.969686
3.1491427 4.3708792 1.9822314
3.2053735 4.3692961 1.9756186
3.2566543 4.3678608 1.9747771
3.2940097 4.3668404 1.9884917
3.3319941 4.3658018 2.0018983
3.3768678 4.3645706 2.0149477
3.4266036 4.3631935 2.0226488
3.4621997 4.3622389 2.0456529
3.5088339 4.3609591 2.0594497
3.5562136 4.359664 2.0761068
3.5856133 4.3588924 2.1049776
3.6727381 4.3564515 2.1018338
3.7101686 4.3554521 2.1285822
0.13585877 4.4550238 1.9333136
0.23069763 4.4523492 1.9195442
0.35417318 4.4489074 1.9251381
0.45891476 4.4459791 1.9249966
0.55497217 4.4432983 1.9273514
0.64554882 4.4407673 1.928001
0.71430445 4.4388332 1.9207804
0.78490138 4.4368548 1.9180644
0.86005044 4.4347596 1.9211142
0.91887522 4.4331074 1.916744
0.98607922 4.4312363 1.9210514
1.0389683 4.4297481 1.9151907
1.0969433 4.4281249 1.9137923
1.135603 4.4270248 1.9026204
1.203503 4.4251533 1.9178865
1.2365448 4.4242039 1.9031149
1.2886984 4.4227571 1.9092928
1.3278402 4.4216537 1.9040716
1.3670298 4.4205532 1.9011735
1.4039291 4.4195166 1.8981963
1.4450969 4.4183683 1.8998631
1.4842739 4.4172764 1.9014784
1.5185354 4.416317 1.9006746
1.552549 4.4153605 1.8973422
1.5860591 4.4144239 1.8972263
1.6223871 4.4134111 1.8986644
1.6562749 4.4124699 1.9022907
1.686745 4.411622 1.9044688
1.7194546 4.4107127 1.9074215
1.7509819 4.4098406 1.9127493
1.7796035 4.4090338 1.9089185
1.8052815 4.4083061 1.9032127
1.8088753 4.4080844 1.8335892
1.8253851 4.4075575 1.79615
1.8572619 4.4066696 1.7978615
1.8866802 4.4058528 1.8010106
1.9181547 4.4049902 1.8110355
1.9519722 4.404079 1.8304917
1.9835511 4.4032278 1.8483406
2.0138621 4.40241 1.8655826
2.0427051 4.4016247 1.8776699
2.0692959 4.4009023 1.8894348
2.0945497 4.4002028 1.8931371
2.1222606 4.3994684 1.91634
2.1479268 4.3987598 1.9215395
2.1714764 4.398139 1.9428977
2.1988742 4.3973589 1.9343925
2.2234409 4.3966599 1.9275013
2.2475402 4.3959751 1.9211679
2.2732103 4.3952599 1.9225745
2.2951493 4.39468 1.9415674
2.3213854 4.393919 1.9256524
2.3483725 4.3931446 1.9142346
2.3730702 4.3924618 1.918515
2.3974426 4.391788 1.9230987
2.4247212 4.3910255 1.9230971
2.4518225 4.3902569 1.9164943
2.4758253 4.3895998 1.924436
2.5043483 4.3887982 1.92214
2.5387552 4.3877945 1.8979658
2.5683858 4.386961 1.8950282
2.5976162 4.3861437 1.8947861
2.6316378 4.3851805 1.8880827
2.6596973 4.3843956 1.8876556
2.6933131 4.3834467 1.882238
2.7202058 4.3827076 1.889565
2.7207346 4.3828011 1.9516151
2.7422979 4.382225 1.9669579
2.7687221 4.3815022 1.9760556
2.7918882 4.3808794 1.9900899
2.8155086 4.3802443 2.0046306
2.8434246 4.3794813 2.0144961
2.871922 4.3786964 2.0212874
2.8977189 4.3779955 2.0328097
3.0026791 4.374918 1.9504199
3.0452697 4.3737278 1.9507934
3.0799451 4.3727756 1.9605833
3.1159005 4.3717837 1.9681624
3.1559548 4.3706789 1.9766904
3.2057056 4.3692832 1.9737605
3.2609067 4.3677344 1.9705282
3.2990654 4.3666925 1.9847944
3.3378038 4.3656368 2.0003757
3.3717794 4.3647213 2.0198159
3.4223809 4.3633223 2.0287704
3.4628196 4.3622208 2.0452304
3.509537 4.3609419 2.0605412
3.549628 4.3598557 2.080658
3.5899363 4.3587675 2.1024723
3.6731992 4.3564415 2.1037054
3.7092602 4.3554821 2.1311722
0.11199951 4.4556489 1.90922
0.23519754 4.4522066 1.9097705
0.32402158 4.4497018 1.897475
0.4427886 4.4463959 1.9055077
0.54017282 4.443676 1.9065796
0.63156843 4.4411278 1.9105275
0.70997977 4.43893 1.9072157
0.7812798 4.4369345 1.9055903
0.8509357 4.4349861 1.9050307
0.90964246 4.4333372 1.9002881
0.97813523 4.4314284 1.9037369
1.0369394 4.4297886 1.906177
1.0940621 4.4281855 1.9022353
1.1414505 4.4268508 1.8966767
1.1983255 4.4252753 1.9048071
1.2360996 4.4242001 1.8936716
1.2845068 4.4228549 1.8983355
1.3287796 4.4216175 1.8984156
1.3666856 4.4205513 1.8944304
1.407161 4.4194155 1.8920074
1.4494035 4.4182415 1.8958699
1.4831437 4.4172907 1.8913747
1.5185648 4.4162979 1.8902633
1.5543315 4.415297 1.8895371
1.5872521 4.4143734 1.8876003
1.6227012 4.4133878 1.890538
1.6563897 4.4124513 1.8935378
1.6925359 4.4114599 1.9044659
1.7229183 4.4106112 1.9047651
1.7538005 4.4097466 1.9039739
1.7823644 4.4089551 1.9078389
1.8097011 4.4081812 1.9024099
1.8326526 4.4075084 1.8844136
1.8348053 4.4073114 1.8060633
1.8623662 4.4065256 1.7972078
1.8906466 4.4057245 1.790966
1.9226624 4.4048548 1.8056436
1.9553161 4.4039636 1.817826
1.9854321 4.4031487 1.8332777
2.0160677 4.4023228 1.8508264
2.0466261 4.4015136 1.8766639
2.0731406 4.4007773 1.8794897
2.0990155 4.4000702 1.888781
2.1244607 4.3993788 1.9002004
2.1506951 4.3986669 1.9124633
2.1757379 4.3980064 1.9348856
2.2025535 4.3972616 1.9377348
2.2252975 4.3965998 1.9228355
2.2497029 4.395915 1.9215744
2.2765007 4.3951683 1.9226488
2.2982037 4.3945818 1.934386
2.3247988 4.3938351 1.9324752
2.3505254 4.3930855 1.9148585
2.375587 4.3923965 1.9215614
2.4011321 4.3916917 1.9269986
2.4261715 4.3909874 1.9242328
2.4529629 4.3902378 1.9240713
2.4788854 4.3895149 1.9251001
2.5040576 4.3888192 1.9294151
2.5389006 4.3878078 1.9081024
2.568778 4.3869667 1.9048203
2.5982313 4.3861346 1.8996357
2.6287985 4.3852777 1.8983066
2.6619298 4.3843427 1.8931259
2.6900377 4.3835654 1.897929
2.7229908 4.3826351 1.8924547
2.725029 4.3826818 1.9520292
2.7468402 4.3821011 1.9687934
2.7705989 4.3814573 1.9804877
2.7950451 4.380795 1.9924867
2.8171325 4.3802075 2.0097375
2.8437607 4.3794808 2.0197167
2.8754764 4.3785996 2.0227799
2.9017522 4.3778896 2.0367496
2.9945948 4.375174 1.967845
3.041913 4.3738394 1.9608837
3.0789583 4.3728161 1.9679027
3.1120667 4.3719077 1.9777298
3.1475868 4.3709364 1.9903574
3.203408 4.3693638 1.9830935
3.2451711 4.3682146 1.9935584
3.2879407 4.3670316 2.0007367
3.3303151 4.365869 2.0134711
3.3694005 4.3648033 2.0287297
3.4247575 4.3632655 2.0342603
3.4601443 4.3623114 2.0542064
3.4987345 4.361269 2.0751617
3.5396028 4.3601608 2.0949507
3.5733309 4.3592634 2.1207161
3.637836 4.3574786 2.1312799
3.715364 4.3553205 2.1365089
0.19294858 4.4533558 1.8918891
0.28579164 4.4507408 1.8803856
0.39573455 4.4476709 1.8825014
0.49755311 4.4448299 1.8852164
0.62043381 4.4414339 1.9074814
0.68126512 4.4397087 1.8933737
0.75756788 4.4375734 1.8918848
0.83406138 4.4354453 1.8978925
0.9006809 4.4335818 1.8970792
0.9576149 4.4319839 1.8931615
1.0177987 4.4303031 1.8942147
1.0722005 4.4287729 1.8890127
1.122541 4.4273624 1.8870233
1.1720495 4.4259739 1.8843143
1.2186853 4.4246712 1.8849092
1.2653828 4.4233646 1.8838549
1.3136652 4.4220223 1.8882272
1.3606279 4.4207172 1.8925279
1.3944571 4.4197607 1.8862411
1.4331708 4.418674 1.8837998
1.4702255 4.4176369 1.8832176
1.5083766 4.4165735 1.88492
1.5437227 4.4155874 1.8860304
1.5763445 4.4146695 1.8823411
1.6113546 4.413692 1.8830355
1.6473814 4.4126987 1.8911244
1.6798669 4.411788 1.8894711
1.714664 4.4108381 1.9027265
1.7470677 4.4099312 1.9019215
1.7755798 4.4091311 1.9002954
1.8050044 4.4083142 1.9033138
1.8300451 4.4076004 1.8953092
1.8267926 4.4075279 1.8017403
1.8521281 4.4067979 1.789191
1.8817949 4.4059544 1.7808396
1.914861 4.4050531 1.7940946
1.9453137 4.4042249 1.8073647
1.97891 4.4033241 1.8293544
2.0090067 4.4025078 1.8438147
2.0392013 4.4017067 1.8685364
2.0661397 4.4009666 1.8756822
2.0945497 4.4002028 1.8931371
2.1193557 4.3995275 1.9037319
2.1461191 4.3988008 1.9158449
2.1711659 4.3981333 1.9346489
2.1955585 4.397459 1.9388229
2.21947 4.3967886 1.9375805
2.2460949 4.3960104 1.9183091
2.2693453 4.3953733 1.9257224
2.2932467 4.3947248 1.9370581
2.3163218 4.3940983 1.9474009
2.3449886 4.3932476 1.9192386
2.368912 4.3925796 1.9194896
2.393703 4.3918977 1.925859
2.4203506 4.3911524 1.925622
2.4461496 4.3904233 1.9211686
2.4721618 4.389699 1.9228203
2.4967952 4.389029 1.9333481
2.5265594 4.3881769 1.9220281
2.558527 4.3872585 1.9075955
2.587867 4.3864384 1.9075458
2.6184325 4.3855762 1.9030409
2.6499758 4.3846817 1.896091
2.6772356 4.3839293 1.9013366
2.7129929 4.3829126 1.8917092
2.7323122 4.3824158 1.9162836
2.7377193 4.3823457 1.9628056
2.7619576 4.3816938 1.9777271
2.787312 4.3810015 1.9870787
2.8113286 4.3803577 2.0026405
2.8339083 4.3797493 2.0155876
2.8593879 4.3790598 2.0289872
2.8900476 4.3782091 2.0323954
2.9164779 4.3774896 2.0434783
3.0247374 4.3743191 1.9606261
3.0618968 4.3732901 1.9662948
3.0965567 4.3723412 1.9775449
3.1340132 4.3713083 1.985667
3.1696017 4.3703327 1.9969337
3.2217813 4.3688698 1.9941789
3.2736344 4.3674192 1.9937588
3.3153961 4.3662729 2.0059404
3.3546391 4.3652 2.0195606
3.3930199 4.3641577 2.0371873
3.4429495 4.3627748 2.0445318
3.4777219 4.3618445 2.0684531
3.524529 4.3605614 2.0828166
3.5703335 4.359314 2.1015944
3.5978987 4.358592 2.1296582
3.6881361 4.3560658 2.1273861
0.15068245 4.4845114 1.8701692
0.25984359 4.4814534 1.8662666
0.37282062 4.4782991 1.8686063
0.48690319 4.4751272 1.8780732
0.56564045 4.4729128 1.8705553
0.65713835 4.4703627 1.8749366
0.74230862 4.4679899 1.8795516
0.8206929 4.465806 1.8835022
0.87645257 4.4642324 1.8751498
0.94381642 4.4623504 1.8755744
1.0100565 4.4605103 1.882
1.0697485 4.4588394 1.8807735
1.1220715 4.4573722 1.8783147
1.1720624 4.4559708 1.8760206
1.2449286 4.4539814 1.9029078
1.2677565 4.4532957 1.8758154
1.3168733 4.451931 1.8806766
1.3585966 4.4507651 1.8807274
1.3982564 4.4496522 1.8783255
1.4382272 4.4485331 1.8770634
1.4775794 4.4474368 1.8793676
1.5135789 4.4464269 1.8773203
1.5485172 4.4454441 1.8739386
1.5841891 4.4444532 1.8774014
1.6161821 4.4435554 1.8754237
1.6525505 4.4425483 1.8807294
1.6844338 4.4416542 1.879051
1.7213433 4.4406433 1.8910148
1.7562938 4.4396858 1.9024236
1.783574 4.4389143 1.8971894
1.811694 4.4381294 1.8976884
1.8385206 4.4373713 1.8929693
1.8518949 4.4369183 1.8475724
1.8655372 4.4364424 1.7936516
1.8916352 4.4356937 1.7823685
1.9251773 4.434772 1.7916267
1.9559498 4.4339309 1.8025165
1.9873655 4.4330835 1.8200868
2.0196519 4.4322209 1.843047
2.0488911 4.431428 1.857301
2.0771484 4.4306617 1.8705854
2.1052411 4.4299011 1.8848349
2.1307051 4.4291983 1.8901359
2.1569426 4.4284959 1.9077837
2.1825757 4.4277987 1.918848
2.2071829 4.4271421 1.9365399
2.2312441 4.4264736 1.9390709
2.2569311 4.425735 1.9272794
2.2821999 4.4250174 1.9208342
2.3051624 4.4244013 1.9356126
2.3282893 4.4237843 1.952557
2.3576639 4.4229159 1.9253175
2.3819225 4.4222326 1.9223665
2.4076464 4.421526 1.9295313
2.4317398 4.4208546 1.9305407
2.4601185 4.4200468 1.9224161
2.4873469 4.4192877 1.9234694
2.5121462 4.4186029 1.9283589
2.5378802 4.4178944 1.9344951
2.5732329 4.4168763 1.9174532
2.5966713 4.4162364 1.9262143
2.6261816 4.4154139 1.9273802
2.6643975 4.4143095 1.9068655
2.6958561 4.4134345 1.9093765
2.7319081 4.4124107 1.9001532
2.7288692 4.4126053 1.9631927
2.7525942 4.4119644 1.9758013
2.7817557 4.4111624 1.9834665
2.8049974 4.4105382 1.9979714
2.8272071 4.4099445 2.0134845
2.8503301 4.4093237 2.0283189
2.880641 4.4084864 2.0337591
2.9070797 4.4077663 2.0449524
2.9342577 4.4070287 2.0573423
2.9705615 4.4060163 2.0590568
3.0821624 4.4027662 1.9839535
3.1191223 4.4017477 1.9924139
3.1617093 4.4005637 1.9959507
3.2102535 4.399209 1.9975197
3.2558229 4.3979454 2.0033998
3.2993853 4.3967447 2.0128605
3.3366232 4.3957324 2.0294166
3.3862343 4.394361 2.0381308
3.4298296 4.3931646 2.0511048
3.4700165 4.3920746 2.0699608
3.5166192 4.3908005 2.0866833
3.5713353 4.3892918 2.0983722
3.612061 4.3881912 2.1201372
3.6863441 4.3861265 2.1266155
3.7658434 4.3839159 2.1334038
0.1162703 4.485527 1.9010684
0.23968196 4.4820795 1.9021946
0.35225844 4.4789324 1.9021373
0.43633032 4.4765654 1.8922341
0.53535509 4.4738007 1.8943261
0.62764883 4.4712267 1.8976851
0.71284008 4.468853 1.9020478
0.78666449 4.4667892 1.9018677
0.84849405 4.4650507 1.8961289
0.91419613 4.463213 1.8952441
0.98287618 4.4613018 1.9002532
1.035149 4.4598331 1.8959328
1.0951754 4.4581528 1.8946213
1.1449373 4.456758 1.8925349
1.1929283 4.4554138 1.8909924
1.2371693 4.4541683 1.8859707
1.2900947 4.4527035 1.8941666
1.3332087 4.451499 1.8947448
1.3716013 4.4504204 1.8914851
1.4093 4.4493589 1.8872447
1.4479862 4.4482746 1.8854673
1.482498 4.4473028 1.8811849
1.5199394 4.4462624 1.8848258
1.5563385 4.4452438 1.8844032
1.591229 4.4442701 1.8851967
1.6242323 4.443347 1.8850086
1.6581795 4.4424028 1.887688
1.6933951 4.441433 1.8958279
1.7245804 4.4405651 1.8983332
1.7575002 4.439652 1.9022028
1.7866406 4.4388394 1.9035177
1.8155427 4.4380264 1.9005688
1.8388932 4.4373579 1.8912667
1.8388427 4.4372077 1.8045077
1.8640901 4.43647 1.7860081
1.8946273 4.4356241 1.7903773
1.9240909 4.4348011 1.7911065
1.958415 4.4338865 1.8165615
1.9890237 4.4330506 1.8279246
2.0207005 4.4322042 1.8502189
2.0495741 4.4314275 1.8677891
2.0767469 4.4306865 1.8784174
2.1041431 4.4299603 1.9012028
2.1297545 4.4292526 1.9059414
2.1560016 4.4285359 1.9155557
2.1808693 4.4278784 1.9370897
2.2068467 4.427155 1.9387813
2.2306342 4.4265013 1.945296
2.255106 4.4257965 1.9331523
2.2785621 4.4251432 1.934782
2.3044121 4.4244289 1.939297
2.3279252 4.4237776 1.9426334
2.3558359 4.4229603 1.9214313
2.38096 4.4222555 1.9201282
2.4051919 4.421598 1.9315282
2.4330459 4.4208088 1.9254559
2.4603899 4.4200339 1.9193743
2.4850025 4.4193597 1.9271911
2.5084243 4.4187155 1.9331727
2.5414779 4.4177675 1.9195743
2.5698564 4.4169688 1.9163947
2.5977521 4.416194 1.9190744
2.6357002 4.4150953 1.8973976
2.6611667 4.414403 1.908643
2.6941299 4.4134741 1.904564
2.7005603 4.4133787 1.9528224
2.7262418 4.4126754 1.9611086
2.7523437 4.4119654 1.9721388
2.7757628 4.4113317 1.9843701
2.8010778 4.4106436 1.9956169
2.8246272 4.4100127 2.0113339
2.8522964 4.4092546 2.020102
2.8774705 4.4085684 2.0302982
2.9061222 4.4077854 2.040257
2.9318492 4.4070902 2.0539088
2.9661875 4.4061346 2.0567403
3.0838597 4.4026966 1.9713714
3.1182683 4.4017572 1.9840964
3.1581385 4.4006543 1.9907069
3.2107177 4.3991795 1.9879351
3.2525704 4.3980246 1.996518
3.2949679 4.3968592 2.0078247
3.3377047 4.3956842 2.0189714
3.3863888 4.3943377 2.0273561
3.4268045 4.3932381 2.0445867
3.4717493 4.3920045 2.0576398
3.5138955 4.3908596 2.076694
3.5457902 4.3900127 2.1023374
3.6226783 4.3878651 2.1033154
3.6822114 4.3862267 2.1177478
3.7610815 4.3840342 2.1249709
0.18875885 4.4835658 1.938293
0.30445385 4.4803295 1.9369091
0.38827085 4.4779654 1.9248085
0.49947596 4.4748673 1.9307909
0.59415579 4.4722233 1.932286
0.67245507 4.4700298 1.9296244
0.74518514 4.467989 1.9251443
0.81676495 4.4659853 1.9233675
0.88194358 4.4641609 1.9219203
0.944888 4.4624004 1.9212923
1.0054259 4.4607077 1.9211859
1.0625881 4.4591098 1.9211118
1.1101227 4.4577627 1.9104581
1.169486 4.4561119 1.9153432
1.2126808 4.4548941 1.9094572
1.2578391 4.4536304 1.9087288
1.3050772 4.4523134 1.9109533
1.3465787 4.4511509 1.9093158
1.3793684 4.4502172 1.8996874
1.42293 4.4490061 1.9032805
1.4540393 4.4481211 1.8946604
1.4920778 4.4470606 1.8961304
1.5312279 4.4459734 1.9001647
1.5644979 4.4450364 1.8961258
1.5960974 4.4441471 1.8924932
1.6314714 4.4431639 1.8958879
1.6652383 4.4422231 1.897568
1.699963 4.4412661 1.9054437
1.7313213 4.4403973 1.9098415
1.7634759 4.4395075 1.9151523
1.7877971 4.4388142 1.9073522
1.8142092 4.4380665 1.9021027
1.8097421 4.438025 1.8066394
1.8368099 4.4372454 1.7933685
1.8635869 4.4364891 1.7890042
1.8971158 4.4355698 1.7990355
1.9307606 4.4346571 1.8152254
1.9618829 4.4338121 1.829378
1.9909816 4.4330215 1.8428099
2.0238502 4.432157 1.8737592
2.0515127 4.4313974 1.8814125
2.0772243 4.4306974 1.8921802
2.1062167 4.4299192 1.9108248
2.1307929 4.4292421 1.9164029
2.1555295 4.4285555 1.9190708
2.1808796 4.4278736 1.9343402
2.2069016 4.427166 1.9457858
2.2306705 4.4265165 1.9543115
2.2560923 4.425765 1.9309734
2.2790232 4.4251318 1.9355838
2.3026333 4.4244766 1.9383124
2.3290725 4.4237132 1.9243464
2.3541713 4.4230256 1.9323082
2.3805263 4.4222789 1.9264191
2.406136 4.421567 1.9286678
2.4328747 4.4208012 1.9181863
2.4569252 4.4201393 1.9243714
2.4846263 4.4193621 1.9226264
2.5119753 4.4185929 1.9198619
2.5419555 4.4177489 1.9165561
2.5735745 4.4168444 1.9044281
2.60778 4.4158621 1.8896685
2.6340938 4.4151449 1.9002386
2.6722262 4.4140444 1.8804011
2.6765676 4.4140253 1.9391018
2.6984634 4.4134407 1.9548147
2.7248235 4.412715 1.9611607
2.7492409 4.4120545 1.9737663
2.7751443 4.4113464 1.9830858
2.8006523 4.4106522 1.9935218
2.8247294 4.4100041 2.0080333
2.8552096 4.4091601 2.0126042
2.8813968 4.4084492 2.0248003
2.9069936 4.4077563 2.037734
2.938277 4.4068937 2.0445931
2.9840624 4.4055934 2.0327878
3.0861824 4.4026232 1.9663337
3.1223903 4.4016294 1.9769051
3.1646814 4.400454 1.9809073
3.2254481 4.3987365 1.9699483
3.2687111 4.397542 1.9784907
3.3026314 4.3966269 1.9974597
3.3515859 4.3952684 2.0030322
3.3909631 4.3941951 2.0188422
3.436048 4.3929596 2.032969
3.4892368 4.39149 2.042871
3.5299397 4.3903847 2.0613875
3.5864263 4.3888283 2.0743675
3.6584706 4.3868217 2.0787907
3.7216277 4.3850794 2.0918281
3.8041687 4.3827825 2.0977454
0.23316741 4.4823422 1.9483408
0.32001758 4.4798908 1.9347192
0.41538548 4.4772139 1.9285417
0.52377748 4.4741964 1.9353768
0.6151886 4.4716415 1.9359237
0.6922574 4.4694819 1.9327629
0.76726556 4.4673805 1.9301873
0.82769299 4.4656792 1.922859
0.89348531 4.4638371 1.9213055
0.95541489 4.4621034 1.9198413
1.0213325 4.4602699 1.924907
1.0680574 4.4589462 1.9150459
1.1238458 4.457387 1.9152453
1.1818553 4.4557772 1.9217165
1.2195371 4.4547024 1.9094948
1.2603768 4.4535537 1.9054199
1.3088113 4.4522076 1.9097108
1.3512357 4.4510169 1.9071215
1.3882312 4.4499779 1.9041973
1.4295238 4.4488249 1.905243
1.464987 4.4478292 1.9025539
1.5022149 4.4467859 1.9010864
1.5382357 4.4457779 1.9001907
1.5720863 4.4448318 1.9006212
1.6011769 4.4440069 1.8936466
1.6386795 4.4429722 1.9013945
1.6725373 4.4420333 1.9059458
1.7075338 4.4410648 1.9115648
1.7358599 4.4402685 1.9089396
1.7659991 4.4394283 1.9103402
1.792755 4.4386749 1.9070705
1.8182007 4.4379435 1.8956562
1.8172264 4.4378252 1.8120849
1.8447022 4.4370413 1.8030152
1.8720752 4.4362721 1.8006622
1.9018037 4.4354439 1.802254
1.9367911 4.4345064 1.825413
1.9683583 4.4336557 1.8436538
1.9992512 4.4328203 1.859659
2.0278835 4.432044 1.8734268
2.0556149 4.4312921 1.8869613
2.0827613 4.4305458 1.893921
2.1083066 4.4298506 1.904922
2.1354175 4.4291334 1.9284629
2.1604669 4.4284468 1.9362257
2.184885 4.4277678 1.9381135
2.2114153 4.4270134 1.9306749
2.2361114 4.4262962 1.9155593
2.2593307 4.4256749 1.9312371
2.2840722 4.4249926 1.9366224
2.3081906 4.4243236 1.9395423
2.3364167 4.4234915 1.9148618
2.3606019 4.4228272 1.9215333
2.3849654 4.4221554 1.9268265
2.4115012 4.4214001 1.9191349
2.4395776 4.4206057 1.9137186
2.4644806 4.4199233 1.9215817
2.4901459 4.4192057 1.9211997
2.5258372 4.4181705 1.8997433
2.5483789 4.4175682 1.9159822
2.5773628 4.4167495 1.9110214
2.6150558 4.4156561 1.8881202
2.6444812 4.4148417 1.8928593
2.670042 4.4141335 1.8965436
2.6814885 4.4138851 1.9374051
2.704581 4.4132624 1.950453
2.7301631 4.41257 1.9633626
2.7549322 4.4118934 1.9725424
2.7817852 4.4111595 1.9822961
2.8028383 4.4106016 1.9995251
2.8294752 4.409874 2.0092669
2.8584683 4.4090748 2.015985
2.8841701 4.4083762 2.027307
2.9105992 4.407661 2.0407276
2.9501872 4.4065475 2.0367384
3.0587375 4.4033747 1.9574587
3.0967414 4.4023218 1.9625977
3.1338818 4.4013014 1.9732156
3.1901181 4.3997164 1.9656028
3.2305603 4.3985982 1.9726206
3.2729316 4.3974314 1.9826409
3.3164761 4.3962336 1.9938686
3.3612556 4.3949986 2.0032516
3.4057107 4.3937774 2.0156608
3.4498749 4.3925686 2.0304742
3.4930277 4.3913932 2.0481091
3.5265095 4.3904991 2.0723276
3.6033881 4.3883491 2.0715709
3.6723671 4.3864346 2.0795026
3.7415614 4.3845186 2.0899003
3.8171368 4.382422 2.0990372
0.10346127 4.4859352 1.9297063
0.24006248 4.4821262 1.9352186
0.36285138 4.4787054 1.9415458
0.45456219 4.4761295 1.934459
0.54234958 4.4736686 1.9306649
0.63215494 4.4711585 1.9306505
0.7084012 4.4690228 1.9284136
0.77893567 4.4670467 1.9258026
0.84959233 4.4650698 1.9244159
0.90930688 4.4633904 1.9185449
0.96987319 4.4616966 1.9184163
1.0333945 4.4599247 1.9205328
1.0913012 4.4583058 1.9203629
1.1363988 4.4570303 1.9119275
1.2058568 4.4551249 1.9324218
1.2395892 4.454155 1.9170468
1.2764028 4.4531088 1.9071666
1.3232869 4.4518042 1.9105108
1.3609726 4.4507446 1.9072739
1.3986986 4.4496846 1.9040141
1.4399862 4.4485321 1.9050201
1.4732031 4.4475899 1.8971546
1.510942 4.4465418 1.9010338
1.5435152 4.4456253 1.8974886
1.5807933 4.4445877 1.9001389
1.6137838 4.4436641 1.8992196
1.6470659 4.4427404 1.9032024
1.6794093 4.4418364 1.9031141
1.7155194 4.4408493 1.9158597
1.744794 4.4400196 1.9091623
1.774475 4.4391952 1.9123119
1.8017373 4.4384232 1.9066379
1.8151762 4.4379811 1.8686568
1.8263041 4.4375753 1.8144228
1.8488872 4.436902 1.7900561
1.8794611 4.4360604 1.7976415
1.9156318 4.4350901 1.8210226
1.9465849 4.434236 1.8273963
1.9774747 4.433404 1.8452268
2.009156 4.4325542 1.8658859
2.0373878 4.4317884 1.8791823
2.0625358 4.4310904 1.882401
2.0903935 4.4303265 1.8907316
2.1168957 4.4296093 1.9043682
2.1418147 4.4289494 1.9254622
2.1682394 4.4282274 1.9346242
2.1918592 4.4275723 1.9376926
2.215744 4.4268923 1.9305841
2.2406449 4.4261737 1.9178387
2.2639172 4.4255476 1.9316293
2.287061 4.4249258 1.9462599
2.3143594 4.4241457 1.9363471
2.3401756 4.4233885 1.9159709
2.364922 4.4227028 1.9195377
2.3893719 4.4220262 1.9234124
2.4163499 4.4212608 1.9169413
2.4435377 4.4205022 1.9176044
2.4664912 4.4198761 1.9268481
2.4937477 4.4191113 1.924958
2.5263901 4.4181662 1.9062761
2.5516753 4.41747 1.9121381
2.5798199 4.4166899 1.9160388
2.6195562 4.415534 1.890041
2.6485059 4.414732 1.8944249
2.679101 4.4138789 1.8956629
2.6860652 4.4137692 1.9442751
2.7098327 4.413125 1.9558967
2.7371154 4.4123726 1.96162
2.7616405 4.4117131 1.9766644
2.7876594 4.4110022 1.9861084
2.8078957 4.4104686 2.004499
2.8353608 4.4097118 2.0110397
2.8631477 4.4089503 2.0195289
2.8923988 4.4081469 2.0274682
2.9226351 4.4073162 2.03614
2.9591057 4.4063005 2.0382631
3.0662129 4.4031734 1.9619675
3.1080451 4.4020104 1.9655318
3.139452 4.4011574 1.979587
3.2042716 4.3993158 1.9627876
3.2414131 4.3982997 1.9753881
3.2801356 4.3972425 1.9899516
3.3267703 4.3959494 1.9958674
3.3716993 4.3947124 2.0065761
3.4167821 4.3934736 2.0189323
3.457459 4.3923674 2.0365663
3.5053134 4.3910542 2.0508685
3.5381589 4.3901806 2.076355
3.6162193 4.3879976 2.0755877
3.6692982 4.3865433 2.0924501
3.7489464 4.3843255 2.0974846
3.8215895 4.3823142 2.1085572
0.1991663 4.5132518 1.9179986
0.30260491 4.5103474 1.9105039
0.41108441 4.5073175 1.912218
0.52006984 4.5042834 1.9190788
0.60462594 4.5019145 1.9160383
0.6909554 4.4995022 1.9165953
0.78676891 4.496851 1.9318744
0.82776642 4.4956627 1.9079221
0.89540458 4.4937735 1.9085269
0.96293175 4.4918928 1.9124691
1.0228766 4.4902163 1.9122064
1.076888 4.4886942 1.9051385
1.1288999 4.487237 1.9032344
1.1864244 4.48564 1.9095311
1.2225757 4.4846101 1.8984371
1.2693845 4.4833002 1.8977054
1.3200916 4.4818974 1.9056865
1.3574575 4.4808378 1.8972492
1.3983992 4.4796934 1.8972783
1.4351903 4.4786606 1.8948507
1.4724768 4.4776163 1.8936294
1.5111454 4.4765377 1.8951325
1.5436841 4.4756231 1.891971
1.5791522 4.4746313 1.8919793
1.6113211 4.4737253 1.8878524
1.6480387 4.4727139 1.8966019
1.6791881 4.4718409 1.895229
1.7147087 4.4708633 1.9041883
1.7463582 4.4699783 1.9039112
1.7768681 4.4691329 1.9081419
1.8028712 4.4683943 1.9014089
1.8295658 4.467639 1.8961984
1.8273757 4.467546 1.8077346
1.8503973 4.4668636 1.7853807
1.8844633 4.46593 1.7959834
1.9137156 4.4651093 1.7943919
1.9480631 4.4641857 1.8154628
1.9788451 4.4633503 1.8298216
2.010674 4.462492 1.8475114
2.0405228 4.461689 1.8657107
2.0673385 4.4609675 1.8819112
2.0967424 4.4601822 1.9030218
2.1226907 4.4594755 1.9135511
2.1459572 4.4588337 1.9182948
2.1717861 4.4581451 1.9375507
2.1966901 4.4574518 1.9392084
2.2206073 4.4567909 1.9437088
2.2456551 4.4560728 1.9330943
2.2705112 4.4553742 1.9310943
2.2951617 4.4546957 1.9372344
2.319278 4.4540238 1.9383875
2.3460848 4.4532471 1.9225852
2.3705933 4.4525738 1.9295713
2.3960359 4.45186 1.9279455
2.4224091 4.4511137 1.9227802
2.4514501 4.4502907 1.9163479
2.4748678 4.449646 1.9222385
2.5024891 4.4488783 1.9245619
2.5325339 4.4480171 1.9123051
2.5620937 4.4471912 1.9124856
2.5889513 4.4464397 1.9120585
2.6269503 4.445343 1.8925558
2.6521118 4.4446611 1.9044689
2.6896262 4.4435844 1.8886797
2.6924961 4.4436111 1.9497042
2.7184029 4.4428968 1.9555687
2.7419348 4.4422646 1.9702935
2.7665486 4.441597 1.9820942
2.793427 4.4408603 1.9901943
2.817791 4.4402056 2.0052547
2.8443594 4.4394779 2.0138454
2.8725278 4.4387102 2.0250959
2.9008365 4.437932 2.0329123
2.9271188 4.4372196 2.0454164
2.9620762 4.4362478 2.0488272
3.0733125 4.4329991 1.9687922
3.1156116 4.4318266 1.974196
3.1471572 4.4309678 1.9876971
3.208858 4.4292212 1.9748921
3.2511668 4.4280586 1.9866188
3.2927771 4.4269109 1.9954454
3.3314383 4.4258595 2.0122678
3.38146 4.4244719 2.0182998
3.4207153 4.4234037 2.0351601
3.472712 4.421968 2.0452085
3.5157552 4.4207988 2.0647261
3.540401 4.4201617 2.0943613
3.6342041 4.4175253 2.086169
3.6949067 4.4158535 2.1006985
3.784054 4.4133625 2.1011322
3.8417714 4.4117856 2.1219702
0.2105155 4.5129499 1.9271156
0.27501655 4.5111027 1.9016517
0.42030525 4.5070763 1.921294
0.50885892 4.5045905 1.9154167
0.60256386 4.501976 1.9183489
0.67279148 4.4999971 1.9091024
0.78603148 4.4968748 1.9342061
0.8200264 4.4958763 1.906166
0.89162254 4.4938812 1.910094
0.95614994 4.492075 1.9085151
1.0103011 4.4905567 1.9057184
1.0750433 4.4887466 1.9056679
1.1308315 4.4871922 1.9084345
1.1749564 4.4859457 1.9011852
1.2351674 4.4842834 1.9130167
1.2678785 4.4833455 1.8993828
1.3121274 4.4821091 1.8996551
1.3584473 4.4808183 1.9019083
1.3964224 4.4797502 1.8981586
1.4303083 4.4787936 1.8928403
1.4658343 4.4777927 1.8881809
1.5048318 4.4767027 1.8884962
1.5394845 4.4757361 1.8895683
1.5764514 4.4747009 1.8886318
1.6068155 4.4738483 1.8863451
1.6461338 4.4727678 1.8970253
1.6775112 4.471889 1.8960466
1.7122494 4.4709282 1.9017353
1.7421843 4.4700966 1.904876
1.772625 4.4692469 1.9055219
1.8017622 4.4684334 1.9060849
1.8264941 4.4677267 1.8972511
1.8243432 4.4676304 1.8076512
1.8536232 4.4668107 1.8068297
1.880018 4.4660506 1.7940505
1.9097252 4.4652224 1.7953429
1.9443648 4.4642949 1.8187988
1.9754834 4.4634447 1.8299333
2.0063496 4.4626179 1.8504729
2.0358541 4.4618196 1.8658199
2.0626879 4.4610872 1.8761327
2.0908818 4.4603291 1.8932227
2.1166773 4.459621 1.9006245
2.1434283 4.4589005 1.9163787
2.1688251 4.4582257 1.9363235
2.1940458 4.4575224 1.9371612
2.2188463 4.4568357 1.9411312
2.2438719 4.4561262 1.9354793
2.2685792 4.4554181 1.9253929
2.2927761 4.4547615 1.9367013
2.3145461 4.4541707 1.9468058
2.3425453 4.4533443 1.9219962
2.3682477 4.4526272 1.9227545
2.3932905 4.4519424 1.9314395
2.420032 4.4511824 1.9242591
2.4467354 4.4504299 1.9207697
2.4709928 4.4497633 1.9273486
2.4978166 4.4490194 1.9306663
2.5285764 4.4481335 1.9156866
2.5575671 4.4473224 1.915313
2.5873001 4.4464846 1.911387
2.6217973 4.4454918 1.8952214
2.6511359 4.4446893 1.9051166
2.6843531 4.4437494 1.8986208
2.6917226 4.4436283 1.9473163
2.716779 4.442945 1.9572377
2.7407551 4.4422941 1.9681417
2.7642088 4.4416642 1.9829875
2.792295 4.4408898 1.9891469
2.8160074 4.4402542 2.0046194
2.8437169 4.4394951 2.013684
2.8711534 4.4387469 2.0243466
2.8994679 4.4379692 2.0321202
2.9226573 4.4373522 2.0501509
2.9593849 4.4363241 2.0494339
3.0732179 4.4329991 1.9673303
3.1086845 4.4320292 1.9796501
3.1469383 4.4309716 1.9863838
3.2081571 4.4292397 1.9744993
3.2438543 4.4282646 1.9873545
3.286345 4.427093 1.9966958
3.3252389 4.4260325 2.0120738
3.3740079 4.4246807 2.0187824
3.4127522 4.4236312 2.0377808
3.4580135 4.42239 2.0515854
3.5070608 4.421041 2.0641434
3.5123551 4.420969 2.1078892
3.6240926 4.4178061 2.0851381
3.6843126 4.4161477 2.0995121
3.7649198 4.4139051 2.1054368
3.830821 4.4120903 2.1211185
0.20037389 4.513217 1.9172562
0.31552887 4.5099945 1.9154916
0.42199945 4.5070229 1.9178176
0.51093912 4.504528 1.9129442
0.60454178 4.5019145 1.9147811
0.69026303 4.4995222 1.9167173
0.78642702 4.4968586 1.9310578
0.82061446 4.4958553 1.9037151
0.88711369 4.4939966 1.9037033
0.9574455 4.4920368 1.9073449
1.0113099 4.4905252 1.9037977
1.0763319 4.4887109 1.9057419
1.1276281 4.4872723 1.9031191
1.1718664 4.4860229 1.8958012
1.2282509 4.4844599 1.9034067
1.2696042 4.4832959 1.8985214
1.3129488 4.4820809 1.8966652
1.3520576 4.4809837 1.8945354
1.3952649 4.4797759 1.8943243
1.4342043 4.4786892 1.8952554
1.4716368 4.4776411 1.8942039
1.5055151 4.4766855 1.8895481
1.5435711 4.4756246 1.891157
1.5762966 4.4747062 1.8890144
1.6089903 4.4737945 1.8902836
1.64485 4.4727974 1.8931906
1.6780099 4.4718761 1.8963604
1.7104441 4.4709778 1.9014695
1.7455957 4.470006 1.9074982
1.7733624 4.4692254 1.9049551
1.8020552 4.4684238 1.9051805
1.8286095 4.4676671 1.8970524
1.828047 4.4675384 1.8140821
1.8557205 4.4667425 1.801538
1.8824131 4.4659824 1.7931589
1.9116237 4.465169 1.7951405
1.9453439 4.4642601 1.8145036
1.9763367 4.4634142 1.8262191
2.007962 4.4625673 1.847424
2.0380902 4.4617558 1.8650205
2.0663385 4.4609842 1.8752372
2.0928352 4.460268 1.8895463
2.1187439 4.4595585 1.897752
2.1455951 4.4588385 1.9155543
2.1701474 4.4581842 1.9338129
2.1959143 4.4574709 1.9376931
2.2200322 4.4567981 1.938429
2.244544 4.4561043 1.9335196
2.2685566 4.4554138 1.9226297
2.2920187 4.4547777 1.9338449
2.3155389 4.454144 1.9474505
2.3433623 4.4533224 1.9221303
2.3700323 4.4525743 1.9208057
2.3937154 4.4519272 1.9294853
2.4190993 4.4512091 1.9245466
2.4473193 4.4504099 1.9185969
2.4733255 4.4496846 1.919435
2.4956269 4.4490881 1.9346883
2.5257332 4.4482346 1.9281981
2.5566461 4.4473467 1.9144324
2.5850754 4.4465508 1.9137218
2.6193554 4.4455738 1.9031532
2.653434 4.4446025 1.8921285
2.6803553 4.4438658 1.9011067
2.7041085 4.4432282 1.916548
2.7137241 4.4430261 1.954677
2.7385683 4.4423561 1.9688833
2.7624335 4.44171 1.9807019
2.7894592 4.440968 1.9884771
2.8130729 4.4403305 2.0013666
2.8365245 4.439702 2.0167844
2.8679366 4.4388309 2.0209224
2.8937905 4.438127 2.0317078
2.920059 4.437418 2.0459676
2.9534178 4.4364891 2.0484602
3.0634458 4.43328 1.9715346
3.1006489 4.432251 1.9780545
3.141268 4.4311237 1.9826834
3.1853633 4.4298973 1.9862835
3.2395294 4.4283791 1.9839523
3.2828653 4.4271836 1.9929324
3.3099899 4.4264669 2.0165915
3.3652267 4.4249268 2.0187819
3.4092531 4.4237185 2.0316253
3.4492223 4.4226313 2.0489111
3.5011709 4.421196 2.0587187
3.5355339 4.4202781 2.0830605
3.5979967 4.4185486 2.0924537
3.6951323 4.4158173 2.08338
3.7418323 4.4145508 2.1059465
3.8241777 4.4122639 2.1143322
0.26450849 4.5114326 1.9220746
0.38726449 4.5080104 1.927562
0.46749973 4.5057492 1.9170235
0.573313 4.5028028 1.9235604
0.65183616 4.5006032 1.9208019
0.71966934 4.4986925 1.9126475
0.79866314 4.49649 1.9157701
0.86015272 4.4947624 1.9107087
0.92521799 4.4929438 1.9108242
0.98668849 4.4912252 1.9105878
1.0445739 4.4896064 1.9102688
1.1041253 4.4879375 1.9078096
1.1529181 4.4865694 1.905154
1.218449 4.4847641 1.9205978
1.2433372 4.4840288 1.8979638
1.2926273 4.4826555 1.9005756
1.3358301 4.4814467 1.8997031
1.3744037 4.4803619 1.8962494
1.413079 4.4792786 1.8946635
1.4527848 4.4781713 1.8963896
1.4877555 4.4771881 1.893216
1.5235761 4.476181 1.8898083
1.5562652 4.4752674 1.8898543
1.5908195 4.4743023 1.8901619
1.628207 4.473269 1.8968953
1.6618274 4.4723272 1.8960192
1.6947225 4.4714208 1.90329
1.727651 4.4705057 1.9063165
1.7564051 4.469697 1.9037597
1.7854222 4.4688921 1.9071997
1.8118731 4.468142 1.901065
1.8286887 4.4676099 1.8653778
1.8351628 4.4673176 1.8016553
1.8620099 4.4665403 1.786245
1.8933049 4.4656873 1.7986097
1.926273 4.4647827 1.8084323
1.9565799 4.4639592 1.821884
1.9906999 4.4630489 1.8467526
2.0179992 4.4622917 1.8504319
2.0487108 4.4614811 1.8775215
2.0769167 4.4607172 1.8919932
2.1016264 4.460043 1.9011413
2.1290333 4.4592986 1.9137275
2.1538985 4.4586315 1.9298254
2.1790197 4.457952 1.9427814
2.2044041 4.4572392 1.941136
2.228101 4.4565902 1.9485701
2.2540956 4.4558105 1.9181634
2.2773352 4.4551973 1.9390423
2.3003323 4.4545665 1.9459262
2.3283544 4.4537439 1.9235524
2.3524411 4.4530644 1.9198703
2.3773966 4.4523811 1.9278578
2.4020929 4.4516945 1.9300644
2.4309773 4.4508648 1.9174396
2.4559944 4.4501758 1.9233055
2.4825766 4.4494324 1.923257
2.5069108 4.4487572 1.9257495
2.5368707 4.4479065 1.9183539
2.5676637 4.4470344 1.9119456
2.593421 4.4463301 1.9206562
2.6363316 4.4450746 1.8887668
2.6616597 4.4443789 1.8956953
2.6957531 4.4434175 1.8911818
2.6961653 4.4435148 1.9536428
2.7216094 4.4428134 1.9590937
2.7463348 4.4421463 1.9729187
2.7722189 4.4414411 1.9833056
2.798151 4.440732 1.9924343
2.8207161 4.4401255 2.0063903
2.8490036 4.439352 2.0163431
2.8750031 4.4386415 2.0254369
2.9007282 4.4379454 2.0389562
2.9350355 4.4369922 2.0420017
2.9712017 4.4359865 2.0449429
3.0778868 4.4328766 1.9717376
3.1184609 4.4317498 1.9759688
3.1527274 4.430809 1.9859157
3.2192979 4.4289207 1.970009
3.2484727 4.4281397 1.9899926
3.2945547 4.4268622 1.996024
3.3382218 4.4256625 2.0079508
3.3826396 4.4244409 2.019464
3.4266877 4.4232311 2.0319245
3.4731221 4.4219561 2.044929
3.5212264 4.42064 2.0612221
3.5476589 4.419951 2.0899544
3.6408563 4.4173279 2.0796986
3.6861119 4.4161062 2.104393
3.7740378 4.4136477 2.1040492
3.8388796 4.4118638 2.1205697
0.21680212 4.5127583 1.9175087
0.33074141 4.5095739 1.9178407
0.44586253 4.5063658 1.9239105
0.53354669 4.5039091 1.920475
0.61689806 4.5015736 1.9172741
0.69611168 4.4993548 1.9147749
0.79007769 4.4967494 1.9268029
0.83137417 4.4955587 1.9060373
0.9028976 4.493566 1.9099305
0.97002339 4.4916959 1.9133314
1.0198159 4.4902897 1.9050754
1.0787312 4.4886398 1.9035163
1.1341329 4.4870958 1.9061012
1.2091241 4.4850411 1.9299912
1.2286798 4.4844456 1.9016397
1.2710601 4.4832511 1.8962259
1.3206445 4.4818807 1.9052138
1.359959 4.480773 1.9003711
1.3984475 4.4796939 1.8984981
1.4360558 4.4786377 1.8954576
1.4723377 4.4776211 1.894021
1.5082839 4.4766102 1.8907242
1.5456516 4.4755735 1.8951627
1.5799654 4.4746089 1.8920887
1.6118813 4.4737158 1.891541
1.6453105 4.4727859 1.8940786
1.6807508 4.4718089 1.901981
1.7142948 4.4708815 1.9076791
1.7474415 4.4699607 1.9110602
1.7764993 4.4691415 1.9072069
1.8019519 4.46842 1.9014878
1.8271189 4.4677029 1.8936042
1.8266163 4.4675684 1.8085035
1.8526155 4.466815 1.7930665
1.8847463 4.46593 1.8008159
1.9122947 4.4651504 1.7952405
1.9461411 4.4642344 1.8122877
1.9778318 4.4633865 1.83433
2.0100856 4.4625216 1.8551869
2.0378335 4.4617748 1.871869
2.0666206 4.4609995 1.8885335
2.0949554 4.4602299 1.9016616
2.1201086 4.4595366 1.9069356
2.1444983 4.4588695 1.9155864
2.1709871 4.458169 1.9383066
2.1961501 4.4574671 1.9394484
2.2212625 4.4567785 1.94699
2.2441573 4.4561181 1.9352473
2.2707572 4.4553676 1.9313687
2.2940307 4.4547281 1.9376031
2.3184745 4.4540462 1.9382722
2.3455155 4.4532595 1.9209692
2.3687012 4.4526262 1.9292047
2.3954437 4.451879 1.9293507
2.4218144 4.4511347 1.9252084
2.4498196 4.4503374 1.9169414
2.475399 4.4496336 1.9234401
2.5001688 4.4489489 1.928013
2.5324776 4.4480205 1.9133453
2.5596275 4.4472599 1.9123507
2.5890453 4.4464369 1.9118267
2.6263702 4.4453602 1.8931206
2.6494815 4.4447303 1.902144
2.6882188 4.4436226 1.8879831
2.6889665 4.4437075 1.9486892
2.7156684 4.4429722 1.9548992
2.7389421 4.4423437 1.9676527
2.763489 4.4416771 1.9790033
2.7919245 4.4408994 1.9886031
2.8139334 4.4403081 2.0022659
2.8397679 4.4396062 2.0138907
2.8675146 4.4388456 2.0224893
2.8922489 4.4381771 2.0356019
2.9212756 4.4373798 2.0440493
2.9535372 4.4364891 2.0502405
3.06898 4.4331141 1.9650759
3.1067669 4.4320693 1.9718014
3.1426754 4.4310837 1.9823374
3.2041254 4.4293437 1.9693916
3.2421918 4.4283061 1.9847004
3.2835701 4.427165 1.9933739
3.3276949 4.4259524 2.0055227
3.3716855 4.4247427 2.016953
3.4161859 4.423521 2.0296984
3.4570498 4.4224081 2.0466194
3.5162802 4.4207649 2.0535417
3.536279 4.4202623 2.0861778
3.6213889 4.4178762 2.0819674
3.6820703 4.4162035 2.0954061
3.7511463 4.414288 2.1043615
3.82796 4.4121618 2.1163812
0.20328832 4.5431366 1.9114727
0.2816627 4.5409107 1.8913566
0.40396667 4.5375071 1.8999062
0.52593875 4.5341187 1.9121912
0.61828351 4.5315447 1.9163686
0.69619274 4.5293589 1.9118408
0.79282069 4.5266824 1.9258156
0.84703708 4.525146 1.9137281
